x y z
-1.543454,0.141353,0.388251
0.722752,-1.206765,0.856424
-1.219629,0.679260,1.967983
-0.137095,-0.489530,2.827888
-1.375201,-0.064588,2.144490
0.500496,-0.185015,2.401720
-0.324117,-0.757713,3.074834
-1.746019,-0.423511,0.878241
0.901023,-0.601681,0.242612
-1.436541,-0.158792,2.077355
-2.097861,0.531592,2.828883
1.681008,-0.630797,0.898624
-2.122995,0.419041,2.404104
-1.497312,-0.202739,0.357268
-0.875415,-1.140319,0.796411
0.894219,0.518289,2.218023
-0.358074,-1.254170,1.914153
1.376181,-0.020592,2.220920
1.588189,-0.792422,1.646899
-0.959678,-0.411179,0.132064
-0.837648,-0.964267,2.899981
0.252049,0.232501,2.434918
-1.554731,0.537018,2.463607
-0.599432,-0.702020,2.492204
1.347260,-0.823589,1.811696
1.427925,-0.355447,0.436708
-1.269648,-0.267363,3.988090
-1.352767,-0.305150,0.278551
-0.460049,-0.787549,2.159397
-0.360660,1.427958,1.581858
-0.792997,-1.282807,1.244072
0.753061,1.266672,0.915248
-1.857339,-0.503901,3.213102
0.105759,-0.197171,0.902106
0.668263,-1.122855,1.845846
-2.125028,-0.278867,2.947461
-1.851307,-0.112270,1.056219
-1.750856,-0.680448,3.190210
-0.184723,0.618230,3.141159
0.497842,-0.420417,0.068849
-0.269374,-0.312996,3.730750
-1.288506,0.517906,2.287320
1.180366,-0.662796,2.053242
0.749045,0.005737,2.350236
1.201252,0.359452,0.292567
-1.145244,-0.936839,2.777763
2.115984,0.246133,1.241133
1.182819,-0.990356,0.836708
-0.748165,0.894882,2.727422
-1.511741,-0.765327,1.544130
-1.766909,-0.571809,3.367052
-0.871512,-0.916243,2.713774
1.318107,0.982335,1.329179
1.657046,0.092057,2.222369
0.037565,0.045601,3.010070
-1.001949,-0.941949,0.531078
0.035786,0.102561,3.145256
-2.154956,-0.235817,2.957953
-0.132387,-0.041033,3.649620
1.065737,1.097004,1.318882
-0.638464,0.863767,3.432346
1.079112,0.652467,2.098425
1.251417,-0.962783,0.865494
-1.753968,-0.494596,1.115664
0.090358,-1.472333,0.892726
-1.266711,0.937220,3.299995
-1.731348,-0.555627,2.531878
-1.056914,-1.146120,1.385873
1.144303,-1.045948,1.447666
-0.045689,-0.646193,0.119137
-2.358935,0.471711,2.661318
0.336258,-0.756837,2.212003
-0.871588,0.306927,4.012105
1.962023,-0.527388,1.274974
-0.609709,-0.438022,0.076774
1.076954,1.085464,1.383727
-0.006909,-0.294695,3.015924
-0.692254,0.103154,4.025170
-1.595865,-0.660764,1.542089
1.883603,0.615327,1.695183
0.701951,0.035767,0.060819
-0.453331,-1.374954,1.709891
-0.699564,-0.940170,2.945330
0.777412,-1.179052,0.869026
0.715036,-0.690486,2.189669
-1.414936,-0.265231,2.209553
-1.335081,-0.401338,2.073860
-1.404622,-0.502000,1.958945
-2.633779,0.024464,2.901155
-0.139571,-1.010816,2.028531
-1.851602,0.165311,1.251284
2.009314,0.484547,1.309858
-0.938357,-0.748012,0.302688
0.868105,-1.092534,1.784594
-0.093321,0.295883,2.703769
-0.372143,-0.754129,3.345492
-0.570004,-0.904553,3.121964
-0.683406,-1.187245,0.741420
1.100504,0.347296,0.234656
-0.129127,-0.402595,3.472683
-1.548955,-0.187834,3.889071
0.748060,-0.019908,2.349716
-2.402358,-0.035163,2.311423
-1.844399,0.206219,1.275242
0.496925,-1.252136,1.628908
-1.764582,-0.396621,0.902764
-0.014127,-0.329792,3.111438
-0.315861,1.130798,1.978831
0.336912,-0.639050,2.285580
0.172862,-0.999355,2.032928
-1.462537,-0.865426,2.865596
0.454668,1.017067,0.413611
0.811817,1.020225,1.920992
-0.148283,0.179868,0.027593
-1.159292,-0.341846,0.188127
2.294028,-0.158507,1.764952
-0.731213,0.754445,2.133693
1.197262,-0.209484,0.251186
-0.932302,0.626522,3.841753
0.791658,1.057444,0.602051
-1.035575,-1.085643,0.844972
-0.191848,1.024094,2.017131
0.221219,0.544461,0.087783
-0.726368,0.030395,0.048437
-0.606377,0.424519,0.074181
-0.594985,-0.900820,2.920314
-1.310669,0.886990,1.657876
0.569907,-0.629159,2.253541
1.412457,-0.841616,0.825935
-1.313583,-0.026577,0.210314
-1.714844,-0.107145,3.790495
2.047853,0.077173,1.048226
-0.202186,0.573193,0.097425
0.548223,1.312695,0.863892
2.050364,-0.502961,1.651201
0.797872,0.892615,2.046151
1.811615,-0.635298,1.141172
-1.559534,-0.662665,1.627471
-0.632474,0.856296,3.443943
1.698368,-0.771129,1.267042
1.881877,-0.608701,1.250012
-0.207815,0.096706,0.526113
-0.648716,0.718871,0.199517
-0.044199,-0.078110,3.486336
-1.582143,0.185126,0.436465
0.625815,1.052450,1.956421
-1.486169,0.368585,1.953671
0.145099,0.160520,2.458328
-0.133593,0.018055,3.651292
-0.816852,0.670987,3.789951
-0.667021,0.944947,1.985306
0.811119,0.215015,2.314926
-1.751848,-0.615489,3.325694
-1.547730,-0.542416,0.591449
-0.819399,-1.219740,0.986513
-0.222975,-0.045496,0.315066
-1.382012,-0.270207,0.287497
0.218619,0.062719,0.525031
-1.294120,0.920867,1.619555
1.573282,-0.649190,1.911130
-0.657588,-0.585971,3.817157
0.334319,-0.720192,2.238212
-1.703407,-0.693275,3.271177
-1.504907,0.129040,2.015604
0.530329,1.328470,1.081668
1.913616,0.547651,1.840109
-1.295692,-0.589186,0.382274
-1.357313,-0.823265,2.656801
0.037310,1.166906,2.004146
-1.333626,0.259489,3.971460
1.490211,0.490995,0.562267
-1.727674,0.521194,1.359339
-1.490394,0.862934,3.270808
0.435414,-0.311833,0.043766
0.579990,1.112513,0.577839
1.790685,-0.175535,0.717273
0.086866,-1.223168,1.978076
-1.308681,0.333050,0.262225
-1.826068,-0.148657,0.916794
1.562020,-0.816568,1.610882
0.601729,-0.847175,0.290513
-1.223784,1.044525,1.358827
1.603369,-0.037767,0.505846
1.794269,0.710362,1.450142
0.009311,0.055858,3.346825
0.707250,-1.266046,1.198957
0.899332,0.712655,2.123555
1.181119,-1.020929,0.921821
0.713181,1.174122,0.823565
-1.515248,-0.755809,0.849978
-0.756968,-1.164830,0.745081
-1.843425,0.227572,1.171648
1.931752,0.604988,1.545736
0.889831,0.533533,0.204307
-2.028262,0.140995,3.207224
0.866705,-0.304679,0.124005
1.427190,-0.393339,2.134819
0.928538,1.128880,1.637294
0.277940,0.208693,0.027736
-1.286782,0.603117,3.813047
-1.510071,-0.052725,3.928749
-1.354732,-0.601769,0.436600
-0.095746,-1.075624,0.432767
-1.411610,-0.680734,0.564842
-0.850317,0.758914,2.091847
-0.361016,1.379392,1.724991
1.037839,-1.138938,1.422255
-0.796657,-1.284893,1.260268
0.033898,1.125294,2.014816
-1.912675,-0.439474,3.262027
-1.891644,0.302165,2.347895
-0.136680,-1.222815,1.975269
-1.077683,1.100576,0.979693
1.057116,-1.119221,1.518161
0.544451,0.282587,2.373079
-0.967533,0.891510,1.922573
-1.862783,0.510086,3.156307
-1.076735,0.701260,2.038438
1.989334,0.556371,1.599060
1.546510,-0.640132,1.933346
-1.007158,-1.120121,0.918143
-0.122012,-1.006521,2.032496
1.600119,0.646251,1.900366
-0.407659,-0.793216,0.216822
-2.191922,-0.114028,2.983533
2.040401,0.172433,2.168484
-1.995104,0.316710,3.014295
2.185577,-0.259022,1.413041
1.885909,-0.127679,2.218620
1.711853,-0.708973,1.072878
2.077807,-0.243416,2.113018
1.258138,-0.430060,0.352362
-0.378807,-0.678184,0.147557
-0.911707,0.645694,2.169293
-2.263915,0.246074,2.936356
2.252532,-0.181869,1.978664
-0.123984,-0.539097,3.075903
-2.288625,0.010109,2.691849
1.513636,0.709926,1.862468
0.357788,-0.465087,2.361343
1.653712,0.529168,0.753003
-0.350924,-0.775907,3.163802
-0.222201,0.280790,3.695657
-0.952846,-0.991318,0.565481
-0.130917,1.363502,0.810228
0.145558,0.176486,0.336085
0.585744,1.098248,1.917356
0.779013,-0.637406,0.212455
-1.800716,0.220237,0.847361
-1.359896,0.854480,0.763336
-1.824150,0.090957,0.881013
-1.313759,-0.634732,1.937355
-0.551487,-0.486398,0.083786
-0.214096,0.454954,2.626203
-0.405049,1.429283,1.558644
-2.097567,-0.235749,2.967102
0.634290,0.068895,0.049151
1.420117,-0.924085,1.087490
-0.037340,-0.384314,3.086554
1.488198,0.544592,0.595137
-0.819800,0.485180,3.928721
-1.756510,0.194946,3.733862
-0.031286,-1.408609,1.707015
1.621609,-0.765738,1.014019
-0.773755,-0.669541,2.371790
1.041961,-0.185465,2.258976
-0.755784,-1.350394,1.256533
-0.737868,0.623388,3.813262
-0.253976,1.319352,0.802195
1.550349,-0.868819,1.347466
-0.323428,-0.430462,2.398306
1.909354,-0.149137,0.861387
-0.143498,-0.178617,0.160922
1.412715,0.936562,1.343785
0.165316,-0.739627,2.233431
-1.346152,0.933788,1.490421
1.271733,0.958140,0.886778
-1.831307,0.629490,2.639100
0.176928,0.144319,0.431204
0.053597,-0.734841,0.165263
-1.190785,-0.588594,3.851732
-1.016289,-0.019813,0.097827
1.131325,-0.694855,2.051623
0.606388,-0.791745,2.142102
1.101695,0.223313,2.238706
-2.439440,-0.022221,2.511940
-1.608411,0.227510,2.283933
-0.244298,-0.644835,0.123127
0.551041,-1.286852,1.451498
-0.040814,-1.384395,1.761808
-0.326282,-1.485023,1.009902
-2.035171,-0.170306,3.098798
-1.588453,0.004648,2.234662
-0.474558,-0.615746,0.122058
-0.649957,-1.312346,1.032970
0.942013,1.198834,1.171537
1.991731,-0.335336,1.076920
-2.324570,0.088669,2.967646
1.665062,-0.380911,2.120239
0.887315,0.534128,0.203392
-1.477484,0.855735,1.325878
-1.902307,0.479325,3.147411
1.668317,0.068028,2.224931
-1.513097,-0.163393,2.218474
-0.212865,-1.023945,0.386997
1.515037,0.686246,0.747343
-0.952979,-0.554233,0.183590
1.161184,0.724446,2.015923
-1.735059,0.424956,1.506019
0.575313,0.660055,0.162967
0.119698,1.344186,0.777078
-0.776435,0.778338,0.272804
1.347405,0.939334,0.972095
-0.784943,-1.262367,1.546068
-0.555171,1.462406,1.095396
-1.458917,-0.152073,0.314947
1.264640,-0.616953,0.461285
-1.757893,0.235711,3.720136
-2.654031,-0.016551,2.861702
0.099750,0.430751,2.391576
0.930364,0.042237,0.119333
-0.020589,1.288042,1.917643
-1.605261,-0.562153,1.671239
-0.762186,-0.655301,3.794235
2.062209,-0.120255,2.183730
0.493592,-0.884594,2.080764
-0.375437,-1.392086,1.692115
-0.360807,-0.733272,3.374638
-0.232442,0.007210,0.112267
-0.175982,0.143200,0.662828
-0.752680,0.235896,4.016546
-2.300591,0.039728,2.287088
0.820898,0.666541,2.175190
1.745117,-0.209049,2.197750
1.436072,-0.835416,1.717474
-1.635535,0.457901,1.704563
-0.746365,-0.858203,2.039625
-0.384309,1.090061,0.480833
-0.036042,0.950640,0.314292
-1.140287,-0.541183,3.892397
0.888220,-0.970163,0.536077
-1.787500,0.353802,0.944738
-2.212120,0.030331,2.610000
1.688881,-0.531936,1.997156
0.527526,-1.068913,1.975186
-0.201986,0.458437,2.648563
-0.958488,0.672603,2.125160
1.129320,0.779796,1.985746
-0.537159,-0.349420,0.054206
-1.568439,0.750933,1.385755
-1.815906,0.041572,1.497127
1.186623,-0.561333,0.374832
-1.386807,0.705722,2.515752
0.306552,-0.250989,2.425047
-1.944431,0.393141,3.148827
0.790117,-1.219070,1.469223
-1.456383,-0.867879,1.074861
-0.733665,0.453512,0.094688
-0.697607,-1.418596,1.352252
-2.377173,-0.014633,2.535477
1.545908,-0.335352,0.527169
-0.370429,0.761002,2.876040
-1.824111,-0.202837,1.403673
-0.645208,-0.912914,3.291435
0.120531,0.193014,0.308597
-1.564723,0.801129,2.850974
-1.076744,-1.115130,1.476345
-0.711779,-0.721603,3.709210
-1.810854,-0.039909,1.514816
-1.534625,-0.537318,1.798903
-2.159340,0.102848,2.991018
0.293828,1.217458,1.930276
-1.003053,0.312935,0.122696
1.935494,0.447792,1.086672
-1.060497,0.507601,3.923222
-1.610253,0.347592,0.534807
-1.287897,0.791226,3.609216
-0.141402,-0.757082,2.212665
-1.471209,0.617772,3.713675
2.044925,-0.342319,1.183804
0.001879,-0.255512,3.208589
-2.382460,-0.040464,2.305708
-1.320839,0.424583,2.071275
-2.253778,0.537881,2.663137
-0.571868,-0.132399,3.980917
0.384277,-0.629505,0.121825
-0.766362,1.084688,1.811215
-1.312495,0.701928,3.711640
-0.791504,-0.924622,2.775786
-0.479828,-1.376956,0.932718
-0.145940,1.504482,1.150414
-1.784406,0.242276,1.520253
1.911863,-0.604942,1.349951
-1.814040,-0.305865,1.351280
0.489710,0.972726,2.041844
-0.526298,1.328670,1.765068
1.558637,-0.753967,0.886260
1.752303,0.668273,1.756362
-1.037412,1.021747,1.739342
1.034494,-0.104022,2.268808
-0.591271,-0.825839,2.107078
-0.073394,-0.790332,0.195872
0.970253,-0.063558,0.135500
-1.428942,0.848743,3.428854
2.060484,0.013722,1.063403
1.503806,0.238786,2.186074
-0.351021,0.578331,2.313975
-0.029250,-1.081480,0.435987
-0.648861,1.232977,0.836104
0.646794,-0.911913,0.362755
0.790420,0.937142,0.447095
2.068497,-0.298372,1.185982
1.735061,-0.671168,1.046832
-0.903751,-1.093569,1.734867
0.002804,-1.486112,1.356899
-1.754162,-0.114727,1.641908
-1.294476,0.368303,0.265239
0.203932,-1.465224,1.383484
-0.383745,-0.595675,3.630565
-0.002904,0.297333,0.027584
-1.161302,0.881187,3.509825
-2.339546,-0.283767,2.384991
-1.844082,-0.130109,1.013303
1.490285,0.722088,1.858694
0.175463,0.143509,0.696237
-0.227520,0.386730,3.639449
-0.809806,0.856744,2.612215
-1.242279,0.727969,3.708874
1.031124,-1.096175,0.925509
-0.127238,0.734873,0.167934
-1.677368,0.626758,1.230169
-0.167693,0.582628,3.232679
-0.156640,-0.173082,2.467708
-1.707536,-0.572495,1.310904
-1.549003,-0.544689,3.729840
1.233655,-0.946264,0.800088
0.508287,-0.776735,2.174307
-0.058870,-0.158823,2.696293
-0.158982,0.425590,2.691003
1.382935,0.295401,2.176159
-1.347704,-0.045521,0.229611
0.022663,-1.227454,0.635821
-0.665196,1.048724,0.502750
-0.337526,0.223994,0.030370
0.230595,-1.431363,0.861256
1.780527,0.341556,2.131965
0.436481,1.351137,1.107218
-1.907666,0.441583,3.287952
-1.702820,-0.705899,2.806206
-0.394357,-0.796646,2.949991
-0.467578,1.466787,1.029367
0.747932,-1.072876,1.881268
1.749198,-0.046889,0.650687
-1.801664,0.145532,0.813292
-1.255131,1.025068,1.339176
1.217661,-0.376224,0.305900
-1.444124,-0.395351,2.278181
-0.911195,0.994837,1.848503
1.142347,-0.722660,2.026405
-0.155184,-1.422303,1.657126
-1.063659,-0.855449,0.467857
-1.822040,-0.288428,1.039436
1.769290,-0.212726,2.196841
0.257445,0.294111,0.032886
0.315934,-1.204796,0.647637
1.076850,-0.727739,0.417281
-0.683353,-1.368892,1.130427
-1.451055,-0.497247,1.918998
-0.735991,-1.246204,1.644661
-2.132766,-0.055606,3.002557
0.031432,-0.142113,3.116549
-0.996273,-0.536375,3.909597
-0.070397,0.584334,2.321097
-2.425409,-0.373721,2.622960
-1.977505,-0.556568,2.547516
1.614300,-0.829098,1.408609
-0.381387,-0.899285,0.292296
-0.387364,-1.368639,1.744471
-1.739600,-0.056447,0.643553
-2.019624,0.215551,3.140978
0.371658,1.372815,0.929116
-0.409544,1.340918,0.869593
-0.849462,0.482110,3.934220
1.079683,0.823714,1.978219
0.453393,1.103715,0.517681
1.716217,0.759483,1.492745
0.945986,0.679066,2.130026
0.884358,-0.975569,0.540078
-0.965211,-0.971896,0.546868
-0.555849,0.910502,0.332082
-0.434597,-1.413107,1.606740
0.436690,-0.397969,2.368030
-1.914669,0.439310,3.230709
0.148108,-1.133025,0.499193
-1.777465,-0.378216,1.421478
-1.152323,-0.972569,0.714119
-0.546796,-1.097983,0.528374
-0.769160,0.791550,2.090192
0.077505,0.215687,0.502983
-1.204610,0.318178,3.986271
-0.006525,-0.327512,0.032231
0.896296,1.022619,0.617440
-1.110699,-0.838965,2.558359
1.483610,0.619668,0.651425
-0.564025,-0.765266,2.160334
-1.404477,0.916204,1.367013
-1.835944,0.064313,2.284087
2.121816,0.430647,1.642673
-0.770582,-1.352530,1.384194
0.716374,-1.286620,0.968147
0.370753,0.138157,2.434022
-1.739886,-0.686289,3.212496
1.423960,0.489399,0.500694
-1.812703,0.504057,2.482077
-2.155329,0.445377,2.872361
-0.444432,-0.641556,0.131949
-0.146975,0.777547,2.197429
-1.666323,0.637466,1.292676
1.636087,0.629115,0.831380
2.137197,0.332549,1.383993
-0.470618,1.474080,1.300572
-1.863714,-0.008137,1.239884
2.023144,0.079841,2.205871
1.070427,1.027510,0.785611
0.069560,0.741710,0.169737
-0.531651,1.437733,1.455176
0.291020,-0.090882,2.449108
-2.343300,0.046129,2.549718
-0.762563,0.792584,0.280794
-1.704959,-0.533479,0.928307
-0.077707,-0.872713,0.253836
-1.466413,-0.858374,1.069081
-0.420126,-0.773442,3.381091
-0.231227,-1.050540,2.006109
-0.310271,1.232375,0.677130
-1.341504,-0.139822,0.233770
-1.927510,-0.194797,3.525300
1.388480,0.509396,2.082405
-1.440182,0.852909,0.941299
-1.695982,0.331971,1.670609
-0.778161,-0.970755,3.106436
-0.026233,-0.106162,2.762089
-1.854726,-0.119940,1.278769
2.252103,-0.241018,1.842516
-1.661995,-0.247867,1.768800
1.287953,-0.821921,1.856577
0.847187,-0.507988,0.176227
-0.090201,-0.258889,2.680484
0.435714,-0.362754,2.378298
-1.309221,-0.274854,2.154432
0.880718,1.219967,1.177969
2.224806,-0.002808,2.123199
-0.848509,0.884320,3.506366
0.046688,-0.211314,0.991458
-0.342462,0.133391,3.849473
0.973194,1.051231,1.791870
2.190361,0.104592,1.314446
-1.628876,0.690004,1.288406
0.877066,0.095634,0.105839
-1.682196,0.258385,0.593607
-0.547583,1.132007,0.576799
-2.365933,-0.292108,2.902205
-1.333786,0.817846,3.544383
0.885599,-1.080242,1.797340
-0.766419,-0.525918,0.124834
2.196062,-0.328754,1.597597
-1.696290,0.106849,1.751044
-2.396459,0.081081,2.959662
-0.618963,0.119462,4.000366
-1.952465,0.100968,2.287041
0.119642,0.219941,2.448401
-0.040975,-0.318823,2.873526
-1.098474,-1.007734,0.727232
1.575226,0.815011,1.051653
-1.328217,0.094765,4.002223
-1.932314,-0.511081,2.883431
-0.375874,0.795091,3.044485
0.198972,-0.896439,2.111926
0.402250,0.866589,0.268588
-1.242540,-0.834368,0.579093
-1.732360,0.501489,3.557118
1.196184,-1.041683,1.290341
-0.945373,-0.768766,3.705983
-1.223518,0.756173,2.480311
-0.255448,1.172393,0.566428
0.514480,1.175231,0.676712
1.772654,0.497866,0.877953
1.048879,0.192811,0.176864
-0.280677,1.456394,1.493265
1.800841,0.604657,1.057243
0.440294,-0.573463,2.304120
-1.289148,1.002390,1.342858
-1.720853,-0.293307,1.643747
1.436257,-0.928913,1.252574
-0.220989,0.052088,0.480514
-0.063295,1.451240,0.866989
-0.422144,-1.444174,0.961842
1.601962,0.057457,2.221693
-0.695436,-1.008866,1.919518
-0.383043,-0.650332,2.624164
-2.176357,-0.559098,2.749070
-0.376460,0.053603,3.884095
-0.918488,-1.162667,1.583794
-1.357708,0.632152,0.465218
0.315205,-0.095998,2.445440
1.876667,0.404605,0.950424
-1.762918,0.122629,1.622471
-1.652181,0.411889,1.704831
-1.896957,0.262785,2.331801
2.229397,-0.078243,2.099924
1.048808,0.040559,2.269094
-1.702146,0.638335,3.388554
-0.190808,-1.502730,1.073519
-0.944650,0.992929,3.050267
1.718158,0.711752,1.099867
-0.945817,0.236460,4.038218
-1.434047,-0.328400,0.345559
0.815278,1.247116,1.133486
0.075345,0.065476,2.471360
-0.051260,0.201327,2.737801
1.765454,-0.590311,1.891828
-0.831165,-0.977160,2.988540
-2.034079,-0.074306,3.232038
-1.824915,-0.588992,2.944333
0.228301,-0.008891,0.704852
-1.026627,-1.161266,1.162317
1.580785,0.154674,0.501925
-1.441707,0.733542,3.606157
0.100656,0.342385,2.419269
-2.368576,0.324906,2.580741
0.325551,0.079639,0.023249
1.640900,0.065205,0.539215
-1.542580,0.188305,0.397050
-2.259560,-0.522372,2.773007
0.332651,1.435887,1.075856
-0.533564,-0.408436,3.877362
-0.526789,0.592796,3.743943
2.161132,-0.027176,2.160757
-0.931869,0.907070,2.684799
-0.407718,1.474387,1.341245
0.042127,0.690130,0.142461
-0.864156,-0.755895,3.712102
-0.565215,-0.811608,2.687163
-0.264219,-1.022846,0.391110
-1.773204,-0.299763,0.814851
0.650272,1.101413,1.885287
0.255134,0.641926,0.121482
-1.056962,-0.438815,0.175071
-1.280624,-0.964174,1.544733
1.365103,-0.709880,0.618236
-0.611597,1.316717,0.992682
-1.821871,-0.304954,1.301960
-0.619537,1.089384,1.862771
0.681941,-1.239582,1.504893
-1.238179,0.780973,3.647515
-0.136340,-0.231184,0.025449
-2.103558,0.222622,2.317258
1.985514,0.363639,2.053464
0.598731,-0.143653,0.045479
0.171190,1.488898,1.204243
-1.567693,0.053093,2.227507
1.943215,0.449405,1.102973
-1.137827,0.931297,2.764275
-0.191044,0.451504,2.659018
-1.368012,0.773454,3.592611
1.396069,0.947044,1.256021
0.074440,-0.444262,0.057104
-0.482244,-0.606065,0.119086
-1.545281,-0.846746,3.011536
-2.384104,-0.037753,2.305938
1.809556,0.675919,1.640359
-0.389574,0.803731,3.147086
0.284216,1.319066,1.640737
-0.783005,-1.199518,0.866498
-0.251573,-1.484299,1.354655
-1.738237,0.033273,0.639615
-0.182109,0.127361,0.911942
-2.183140,0.545703,2.771886
-1.580705,0.684132,1.536783
-1.210254,-0.715099,3.734737
-1.741426,0.518904,1.227369
0.655541,1.007320,0.465852
1.489082,0.896627,1.186279
0.890992,-0.145835,2.302687
-1.600917,0.338225,3.811954
-0.332358,1.267903,0.754316
-1.578069,0.657060,3.572460
-0.021941,0.228834,2.846045
-0.076889,0.493023,2.365225
0.217838,-0.057706,0.748670
1.586999,-0.591500,1.967984
0.907081,-1.183966,1.277756
-1.134150,1.100588,1.190875
-2.005060,0.277748,3.089356
-0.000564,0.820378,0.216149
0.643793,-0.585492,0.142132
-2.113626,-0.362592,2.917549
-0.477073,-0.596599,3.710135
0.055490,1.143400,2.010221
-1.317008,0.938088,2.910369
-0.410859,1.032461,0.423724
-1.113826,1.109184,1.148352
1.683152,-0.784875,1.291457
0.386374,1.041606,2.023761
-2.136800,0.175538,2.303371
-1.250601,0.862478,0.630859
1.355074,0.135993,0.329893
-0.632928,0.527235,3.850304
-0.983653,0.751838,2.042610
1.080444,0.216085,0.193154
-0.131306,-1.267804,0.720405
1.560665,-0.826955,1.053613
-0.842090,0.793695,0.305622
-1.005641,-0.156656,0.100276
-0.747383,-1.150172,0.705771
-1.040496,0.667868,3.806391
1.329193,-0.892025,0.815695
1.032135,1.131229,1.085528
-0.333368,0.596476,3.568700
0.286523,1.356217,1.713024
-1.747851,-0.175164,1.638872
1.572775,-0.191610,2.200082
-1.310755,0.984313,1.382835
-1.436160,0.870185,2.845787
0.390052,-0.940161,2.050459
-0.204884,0.564914,2.790877
2.231938,0.273167,1.601782
-1.713274,-0.345243,3.721506
0.265161,0.261998,2.427561
-0.207336,-0.596167,3.344560
-0.383555,-0.422160,3.772167
-1.448558,-0.854935,1.471728
-0.795623,-0.906054,2.721565
-1.863149,0.544850,3.092440
1.293752,-0.950955,0.902301
-1.766011,0.121218,1.616796
2.061090,-0.466914,1.434310
-0.061685,0.220504,0.142324
-2.237354,-0.056004,2.690154
-1.367208,0.935894,1.061539
-1.663290,0.720385,2.790388
-1.665260,0.615595,0.987900
2.161311,-0.100050,2.143780
-0.014933,-0.620692,2.303597
0.173309,-0.907230,0.278439
0.833025,1.217658,1.343439
1.241078,-1.019635,1.315656
-1.676423,-0.203754,3.799378
1.495757,0.674095,1.915200
0.215273,0.071192,0.719742
-0.791289,-1.192091,1.632578
-0.004956,0.638166,0.116436
-1.426861,-0.410567,2.278352
-1.145408,-1.001862,1.661146
-1.798884,0.310834,1.416238
-0.191787,0.128491,0.055588
1.314908,0.755662,0.619918
1.721761,0.528599,0.840190
-2.335142,-0.157056,2.952642
-0.081501,1.105209,2.016435
0.863024,-0.973060,0.525447
0.443723,1.099416,1.969804
-1.801507,0.377070,1.283923
-0.980682,0.258153,4.031862
-1.194275,-1.048895,1.042942
0.263930,0.092137,0.021289
-1.198618,-0.598944,2.045843
-0.291527,-1.362485,0.847288
-1.635328,-0.740649,3.281870
-0.038436,-0.997900,0.353853
0.718472,1.030627,1.946944
0.806057,-0.934104,0.450482
-1.470230,-0.656001,1.772213
1.370667,-0.956792,1.356890
0.319125,-1.411846,0.918556
0.112288,0.646868,2.289631
-0.710317,0.598067,0.142603
1.733099,-0.752764,1.320093
-0.905998,0.770647,3.696754
0.845757,-0.273208,2.296150
-1.884242,0.312160,3.535957
-0.224809,-0.042541,0.126348
1.307854,0.612095,0.493025
0.033923,0.055902,2.982514
1.031863,-0.552817,2.166056
-0.416524,0.626454,2.556054
-1.604182,-0.678694,1.475856
-2.029557,0.216809,3.037827
0.123299,0.195655,0.043637
-1.633901,-0.096741,0.480245
0.296840,1.082958,2.012783
-1.261327,-0.583218,3.835788
-0.191120,-0.122905,0.421192
-1.796621,-0.641671,2.649087
0.032786,-0.224981,0.474408
-0.986469,-1.007749,0.606745
-0.031352,-0.165937,3.425464
-1.723495,0.509818,3.560479
1.528145,-0.878291,1.227651
-0.333619,0.753785,3.217002
1.433216,-0.239487,0.401912
-0.781350,1.208601,0.897279
0.002734,0.176746,1.009800
-1.765128,0.246085,1.571126
0.982776,-0.744308,0.376153
1.446339,0.184443,2.199413
1.870164,-0.597364,1.197008
1.577941,-0.141616,2.209740
1.039894,-0.602407,0.311292
1.393288,0.938620,1.420745
-2.270929,0.165563,2.959545
-0.220075,0.056796,0.464508
0.543333,-1.133216,0.596949
-1.686932,-0.296022,1.706395
-1.036830,-0.472549,3.945813
-0.275304,0.419093,2.510418
0.991264,-0.847401,0.469222
-0.672670,1.250453,1.723115
-1.542547,-0.492772,3.772135
-1.844462,-0.221348,1.209805
-1.896910,-0.388153,3.426690
1.829856,-0.672627,1.312070
-0.034569,-0.483415,2.370673
-0.259830,-0.774398,2.191329
0.081902,-0.055045,1.009800
1.053659,0.678806,0.367912
-0.882878,1.036799,1.816158
-0.021518,-0.282747,2.907695
-1.358637,-0.077897,0.237422
1.037692,-0.872328,1.985746
-0.934667,0.301543,0.100228
-1.040931,1.054946,0.767290
-1.637672,-0.763202,3.021887
-0.686717,1.430147,1.271316
1.318299,0.615600,0.504237
0.225067,-0.672626,0.135958
-2.168974,-0.116292,2.986960
-0.172499,0.383377,2.624510
0.064524,0.907716,0.277886
0.364712,-1.358582,1.365347
1.518507,-0.884278,1.241113
0.805301,0.116365,2.327788
-0.217847,-0.063498,0.603726
-1.899550,0.453498,3.300116
-1.766428,-0.422714,1.401075
-0.886876,1.075564,1.768152
-0.639487,-1.024849,0.466159
1.219702,-0.775701,1.944239
0.125787,-1.497580,1.186230
1.362776,0.018499,2.221789
-1.186447,-1.071301,1.334395
1.475673,0.225252,0.429907
2.109971,0.069908,2.177981
2.117401,0.417835,1.514570
1.575609,0.783111,0.959551
1.939732,-0.459177,1.106178
-0.571805,0.780893,3.545039
-1.853288,0.157869,1.231023
0.005578,0.708123,2.251764
0.294745,1.446144,0.950285
0.005158,0.234995,0.044876
0.161088,0.258232,0.026444
-0.073102,0.541584,2.344365
0.918380,-0.347453,0.153782
2.145081,-0.332640,1.403004
-0.462087,-1.373634,1.709667
-0.902617,-1.115641,1.700133
-1.355269,0.908932,2.855496
-1.015748,-0.100627,0.100325
1.893059,0.220469,0.863755
0.724346,0.557231,0.152591
-1.335736,-0.950082,1.464034
0.844382,-0.389651,0.136951
-1.000909,0.906676,2.677685
-0.165521,0.351020,2.612001
-2.080475,-0.535410,2.561696
-1.615578,0.041303,1.883268
0.318200,0.432396,0.060277
-0.485231,-0.575854,3.734303
-0.373766,0.827488,0.239368
-1.335544,0.178738,3.987632
-1.709513,-0.070608,0.587389
0.415112,-0.341099,0.046841
0.420278,1.127130,0.541843
-0.911774,0.646075,2.168915
1.364655,-0.503056,0.464875
2.133355,-0.382394,1.461008
-1.408946,-0.331260,2.045197
-0.442756,-1.050750,1.956542
-0.458870,-1.369410,1.721408
-1.247204,0.950656,0.799193
-1.584609,0.322477,0.490030
2.237678,0.120131,2.065538
-0.766624,1.175398,0.779186
0.213936,-1.475417,1.242545
1.220349,0.817460,1.899703
-0.187763,0.552760,2.334138
0.895639,-1.143987,1.625689
-1.475873,0.107729,2.049934
-1.086543,-0.843980,3.596870
-0.512941,0.579113,0.112966
1.089119,0.842523,1.962646
-1.748371,-0.189101,3.742709
-0.161981,-0.085513,3.684423
-1.273300,0.343133,2.182986
-1.355058,-0.710233,0.536977
-2.357539,0.352543,2.555775
0.571842,-0.046416,0.040900
1.921455,-0.421694,2.026239
1.056266,-0.030176,0.167146
-1.164635,0.947113,2.824797
-1.098952,-0.835696,0.467869
-1.938892,-0.630198,2.680760
0.721332,-1.178174,1.671348
2.027229,-0.523555,1.564935
-1.202759,0.423794,2.176140
-1.211748,0.622968,2.020146
0.984740,0.117205,2.279985
-0.956394,-0.720971,2.083954
0.423461,0.120845,2.424094
1.064860,0.703244,0.392841
-0.510658,-1.460891,1.363341
-0.197839,1.217874,0.631496
1.735179,0.682600,1.742387
1.353062,-0.924234,1.571889
0.103142,-0.130099,1.009800
-0.204115,-0.100584,0.657064
-1.163137,1.022431,1.593295
0.498295,-1.198402,1.812429
1.115257,0.968414,1.743333
-1.155407,-0.454637,0.226599
-0.157965,-0.214047,3.646090
2.004486,-0.375420,2.030863
-0.392455,1.465613,0.984381
-0.485464,0.979255,2.001993
-0.638560,0.911984,3.275121
-1.807609,-0.374151,1.156676
-1.211901,0.883151,1.769499
-1.559828,-0.119675,1.951910
0.170089,-1.466424,1.406770
0.121577,-0.575928,2.330151
0.299659,1.175342,0.585867
-0.515136,0.165316,3.949498
-2.020776,-0.295213,2.343733
0.289075,1.269212,1.894688
1.016324,-0.576700,0.284583
-1.488492,0.394280,3.853534
-0.205774,-0.871372,2.126350
2.311769,0.031312,1.672945
-1.792191,0.512808,3.480171
0.789593,-1.115391,1.789124
0.445881,0.595773,2.293288
-1.587369,0.355373,0.509659
2.100704,0.347183,1.984053
-0.926180,0.675698,3.800626
-1.203329,0.874938,3.505542
0.497750,1.211879,1.777042
-1.118720,-1.079937,1.518871
-1.285681,-0.881562,2.716870
-0.730059,-0.310414,3.989689
0.126153,-1.023285,0.377476
0.858698,-0.456387,2.250122
-0.715900,-1.389659,1.213629
0.278701,1.163815,0.562528
-0.239477,0.645183,2.879696
-1.627640,-0.769517,3.027108
-0.810901,0.670944,3.788745
0.512782,0.111458,2.405805
0.409175,-1.337765,1.387399
-0.212452,-1.177086,1.988995
-0.659968,-0.930345,3.209117
-1.228910,-1.013665,0.965361
2.040217,0.204547,1.076825
-1.729243,0.538310,1.109238
-1.627535,0.558796,1.629463
0.131360,0.017058,1.009800
-1.835157,0.264245,1.260167
-0.684766,0.325477,0.062518
0.858563,-0.523489,0.186201
-0.230070,-0.013769,0.154746
-0.487618,-0.555197,2.406392
-1.678408,0.453454,0.726705
0.982904,0.539942,2.184871
-1.116374,0.618850,2.312425
-0.138914,-0.749213,2.218072
-1.514755,-0.726818,1.611808
-1.747619,-0.478211,1.374853
-1.734319,0.530902,1.240627
-0.911740,-0.603573,2.211420
-1.518315,0.832591,3.333924
0.195959,1.120572,0.490807
-0.446273,0.561515,2.324086
1.384572,0.857978,0.823459
-1.104765,0.948703,3.364324
-1.142267,0.190639,0.148260
-0.353943,0.099047,0.024128
0.429369,-0.689951,2.244638
-0.196169,1.219791,1.969964
-2.218915,0.529816,2.783241
-0.800013,-0.581546,0.152095
-1.747703,-0.512502,2.491027
1.834772,0.582765,1.089973
1.723361,0.489647,0.807047
1.289762,0.195365,2.209399
1.085901,-1.095263,1.257247
-0.789180,-0.712807,3.742400
-0.837682,-0.271538,4.021155
0.690181,1.279499,1.140707
-0.741925,-1.343899,1.524588
-0.095156,-1.470082,0.902300
-0.561213,-0.296680,0.048409
-0.850214,0.557330,3.887565
-2.347163,-0.350771,2.482170
-2.364880,0.341215,2.550441
-0.314006,1.129905,0.517670
2.035806,0.214367,1.074403
0.892836,-0.441190,0.168664
-1.695505,-0.728196,2.932667
-1.424170,0.845512,0.866095
-0.918473,-0.699155,2.119920
-0.147939,-0.174959,0.345567
-0.739769,0.870276,0.338842
2.063047,-0.069965,1.071777
-0.505760,0.702754,3.609094
0.666762,-0.907574,2.051091
-0.369044,1.454659,1.472544
-0.356274,-1.193442,1.950815
-1.372403,0.872101,1.592703
-0.201950,-1.495659,1.273712
-0.473743,-0.592574,0.114073
0.593616,-0.184691,2.378554
-1.760955,-0.391869,0.881698
-2.321219,-0.112605,2.567434
-1.667299,-0.499140,0.754134
0.159033,-1.360858,1.799360
-1.567817,0.356034,0.485379
-1.001483,-1.167792,1.435483
-1.554599,0.771734,1.360462
-1.519621,0.392415,0.454041
-0.131150,0.160225,2.562785
-2.086883,-0.258689,2.960917
0.790592,0.100919,2.332815
-0.759772,-0.958654,3.198602
0.013455,0.911671,0.280032
-1.191642,-0.556320,0.295376
-2.172895,0.054608,2.692012
-0.891181,0.797190,0.326246
-0.643321,-1.439785,1.341074
-1.175091,1.046275,1.510713
1.697528,0.231069,0.631840
1.359208,-0.616987,0.536835
-0.097787,-1.338678,0.787466
-0.383689,0.569560,2.318417
-0.288837,0.508252,0.077891
-0.322135,0.669869,2.744273
0.619932,1.276907,0.847982
1.144487,0.544142,2.133716
1.530596,-0.115473,2.212876
-0.722522,-0.680001,2.401761
2.254867,0.012474,1.460975
-1.725772,-0.254405,1.651703
-0.898547,0.390293,0.112086
-0.983162,-1.021494,0.623758
-0.036088,0.010534,2.716382
-1.524246,-0.060970,2.001766
-1.575300,0.823515,3.013131
1.072959,-1.096232,1.307579
0.859047,1.162974,0.904190
1.078901,-0.976429,1.835666
1.521698,-0.864510,1.503912
-0.550305,0.891242,3.173578
0.255038,-0.851041,0.243886
0.041808,-0.004177,3.122511
-1.019392,1.138553,1.022991
1.026436,-1.033131,1.768566
-1.235213,0.656548,3.781529
-1.236851,-0.933728,1.672545
0.546213,1.032879,0.457511
-1.501641,0.793540,0.923557
-1.742231,0.679641,2.829402
-0.975896,-0.767504,2.033520
-0.200431,0.287001,2.441590
-1.472099,-0.625410,3.707273
0.761238,0.884371,2.052134
0.299277,0.165670,2.441737
-1.511980,-0.749238,0.826523
1.509399,0.249758,0.465144
-1.877027,0.188235,3.603392
-2.331178,0.392170,2.554067
-1.338434,-0.910833,2.837000
2.119509,-0.378660,1.405821
-1.192245,-0.826128,2.562578
-0.789780,-0.868600,2.638057
-1.394689,0.638398,2.447170
-0.057050,0.092234,3.510398
1.867041,0.515690,1.935534
-1.526682,0.717781,0.794160
0.882467,0.793419,2.066339
-2.331036,0.000222,2.287691
-1.135102,-0.756232,2.452098
-0.838550,-0.659837,2.346679
-1.573178,-0.805836,3.265232
-0.964797,-0.542833,3.904932
1.745224,-0.665029,1.772932
-0.790152,-0.028309,4.050806
-1.554193,-0.588437,2.518174
-1.120457,0.070629,0.129329
0.280114,1.332909,1.625792
-1.400347,0.355614,0.331288
-1.677106,-0.653512,2.645943
-0.998561,-0.976788,3.273359
-0.585752,-0.096541,3.991350
0.554943,-0.972977,2.039775
-0.202204,0.245820,2.457058
1.078576,0.105245,0.179354
-0.665155,-0.911656,0.354787
2.207055,-0.199217,1.412810
-0.496361,-0.863650,2.972357
0.115362,0.293174,2.433948
-2.313560,-0.447915,2.575593
0.743389,-1.278703,1.040953
-0.201137,-0.338510,2.425243
0.180358,0.121609,0.976230
-0.062932,0.436310,3.100138
-0.601421,0.871695,2.065293
1.154051,0.510817,2.144815
-1.002434,1.023811,0.649555
-1.309155,0.969253,1.461496
1.072363,-0.557459,0.304357
1.277172,-0.295020,2.190932
-1.002169,-1.014940,0.626491
-0.716404,0.764823,2.128955
0.810341,1.236112,1.198789
-0.010111,-0.494897,2.366065
-1.515458,0.807538,1.394446
-1.345032,-0.967216,1.206205
-0.914970,-0.755181,3.717635
-0.112568,0.196668,0.610809
2.209307,-0.074350,1.344041
-0.364279,0.866910,2.111707
-0.014271,-1.288425,1.919150
-2.212205,0.162148,2.969930
0.861491,-1.245106,1.062054
-0.238867,-0.706017,2.239055
-0.411122,0.299077,0.039792
-1.456984,0.874255,1.141446
-1.696189,-0.715569,2.836610
2.112707,-0.174681,1.186066
1.796031,-0.468261,2.028045
-1.780298,-0.222578,0.778438
-1.811627,-0.001793,0.825844
-1.577101,0.617850,2.572305
-1.011812,0.618518,0.244728
-0.276433,-0.913797,2.088090
0.033774,0.223396,0.670715
1.149035,-0.526644,0.332142
-1.800824,0.321190,3.644152
-1.423325,0.579441,3.773461
-2.552224,-0.219618,2.701626
-0.705778,-1.239761,0.908930
-1.455278,0.449494,0.421718
-0.730100,0.599940,2.300891
-0.968566,-1.000492,3.096443
1.423355,-0.930154,1.390207
-0.898945,0.695955,0.247944
-1.745440,0.591654,3.349341
1.035739,-0.693047,0.367277
-0.197658,0.518112,3.463844
-2.316586,-0.506714,2.750401
-2.051986,0.066643,3.083228
0.102992,0.482442,2.369936
0.516050,1.170651,0.666063
-0.288498,0.446614,0.062506
-0.291592,-0.715874,2.228561
-1.527334,0.354166,0.443304
-1.554447,0.319834,0.454117
-1.086473,0.250703,4.027572
-0.459776,-1.430700,1.534307
0.274748,-0.065597,2.453120
-1.371202,0.881431,0.845462
2.071310,0.358948,1.251058
-1.182736,0.462834,2.207970
-1.421256,-0.325830,0.335203
-1.640497,-0.534490,1.629049
-0.697948,-1.086212,0.568558
1.966407,0.192621,2.181709
0.025479,0.186451,3.098988
0.291346,-1.379941,1.583267
0.422150,-0.757813,2.200266
-1.208788,0.771067,2.494398
1.089895,-1.046382,1.575656
1.713375,-0.721636,1.670334
-0.395842,-1.493827,1.146935
0.711015,-1.030700,0.516194
-0.512007,1.097863,0.519618
0.841929,-0.452744,2.255663
-1.286595,-0.339790,2.187568
0.189918,1.462644,1.404748
1.050963,-1.104776,1.324332
-0.901064,0.888353,3.511457
-0.345214,-0.448921,3.723590
0.607570,-0.432986,0.084925
-1.595332,-0.580698,1.668633
0.556693,-1.306811,1.201352
-2.334932,0.476445,2.794172
-1.219835,-0.562939,0.314894
-0.283732,-1.469901,1.431016
-1.731462,0.149048,0.641535
0.494510,-0.357508,0.056385
-0.061536,-1.337359,1.847467
1.985533,0.176237,0.973339
0.988433,-1.147958,1.520318
0.642647,1.273004,1.353856
-1.444515,-0.802166,3.510757
-0.164203,-0.164497,0.283538
0.539371,-1.142058,1.882855
-1.886663,-0.245733,2.324067
-1.939862,0.294058,3.435985
-0.131795,1.505143,1.138109
0.460307,0.464924,2.343379
1.402262,-0.920947,1.502860
-1.240596,0.934887,0.754251
-1.177183,-0.624060,3.827208
0.297773,-0.211127,0.028701
-0.508958,-0.705468,3.610210
-0.091458,-0.186019,3.552400
-1.640521,0.151671,1.830088
0.645203,-0.412416,2.318296
1.230512,0.491498,0.363131
-0.887780,0.538647,0.158611
1.355374,-0.236730,0.350236
-1.424624,-0.602797,0.504162
-1.087257,-0.994326,2.983505
-0.216628,-0.164293,3.731613
0.480280,1.030820,0.434905
-1.786876,0.673375,2.730495
0.244492,0.287913,2.424873
-0.738075,-0.028461,0.049789
0.987837,-1.161128,1.450176
1.392906,0.554399,0.519705
-0.370575,-0.001873,0.022722
0.218431,0.300989,2.425350
0.229993,-0.002325,0.663125
-1.326826,-0.900178,0.806648
-1.173626,-0.969364,1.685821
1.337624,0.279185,0.350466
1.784509,0.476938,0.873131
-0.027619,-0.100144,2.473432
-0.011913,-0.231584,0.116418
-1.874268,-0.526731,2.906562
-1.347196,0.810857,1.726290
-1.671024,0.737414,2.994612
-0.744889,-0.149615,0.052952
1.845473,-0.214442,2.191639
-1.097463,-0.252804,0.140178
-0.913068,-0.513035,3.923159
1.291042,0.301414,2.186087
-1.685391,0.463152,3.683265
-0.610746,-1.455258,1.286514
0.055444,0.317084,0.031190
-0.136458,-0.170192,2.467176
-1.712502,0.422096,0.768951
0.569978,-0.380715,2.345097
0.031529,1.357650,1.811220
-1.659665,-0.438393,0.672531
0.106707,-1.363827,0.786985
0.871544,-0.976769,1.950354
0.466417,0.843517,0.260250
-0.059909,1.369083,1.788989
-0.530973,1.293898,0.896717
1.654807,-0.323701,2.151968
0.750024,-1.208104,1.553099
-1.584947,-0.685985,2.658908
-0.247836,0.474786,2.369876
-0.977407,-0.159274,4.052432
-1.589305,0.745723,2.757156
-0.998813,-0.795540,1.997731
-0.356220,-0.211833,0.029842
-1.014447,-0.825336,2.528782
1.491950,-0.775003,1.782042
0.140763,0.179825,0.286442
-0.692578,0.757818,2.140434
-1.031715,-1.080355,0.819587
-0.850108,-0.236562,4.032723
-2.537081,0.260051,2.721571
-0.178780,-0.121458,0.995561
-1.719885,0.481940,0.879448
-0.572394,0.306147,3.938592
-0.121785,0.267549,3.565826
-0.015541,-0.718741,2.244661
-1.576617,-0.824283,2.989417
0.321353,0.496755,2.351607
-2.386883,-0.247994,2.409935
-0.086621,-1.354767,1.816189
1.091113,1.075709,1.557836
1.331062,-0.225873,0.332093
1.187438,-0.004971,2.242917
-0.433490,1.487778,1.107660
0.220038,0.044695,0.808351
-2.270630,0.141762,2.603190
0.903525,1.112311,0.821261
-0.820322,0.262649,0.072487
0.493635,-1.304516,1.440238
-0.601534,0.908920,2.970085
-1.035556,-0.656808,0.277019
-1.693762,-0.649683,3.385289
-0.867696,-0.572005,0.165814
-1.450377,-0.738867,0.689440
-2.387362,-0.228608,2.389441
-0.970186,0.572588,2.233867
-1.795830,-0.287504,0.886522
1.825707,-0.057021,0.734065
1.684125,-0.151506,0.595452
1.095465,-0.049393,0.183217
0.183504,-1.490478,1.024727
0.026242,-1.369009,1.792816
-0.445617,-1.239810,0.730307
-1.708118,-0.591782,2.571161
1.915588,-0.181710,2.196719
-2.469079,0.043888,2.681830
-0.423905,1.239695,0.725227
0.210906,0.093506,0.268876
-0.662145,-1.172648,0.695215
-0.774582,-0.969809,3.080806
0.393373,-0.983378,2.038111
-0.212432,-0.306611,2.516790
-0.493450,-1.484174,1.195812
1.196161,-0.544901,0.370776
-0.105394,-0.203050,0.324682
-0.046252,-0.354474,2.418678
1.006500,-0.998073,1.858996
1.024596,0.888261,0.532613
-0.168282,-1.407427,1.696924
-0.129451,-0.183649,0.808218
-2.586914,0.136305,2.891287
-1.293575,-1.003628,1.205169
0.018850,-0.584513,2.325014
0.725423,-1.251404,1.335515
0.490868,-1.294495,1.488276
-1.731941,-0.214335,2.316610
-0.884191,-0.957393,3.317441
-1.358507,0.920934,3.269383
-1.297607,0.851913,2.667491
-0.710419,-0.953188,3.155842
1.078990,0.904409,0.587810
-1.667171,-0.025133,0.519952
0.446621,0.021675,2.425980
-0.972742,0.954695,3.354875
-0.800139,-0.781519,2.497599
0.341716,-0.617048,0.115505
-0.133686,0.543852,2.989860
2.174741,-0.322888,1.473589
-0.962355,-1.177059,1.479170
-0.130138,0.696732,2.252575
1.980588,0.553624,1.676411
-0.337726,-0.542860,2.336156
1.583686,0.392997,2.120267
-1.107912,-0.921112,3.439409
-0.529539,0.024605,0.031558
0.957274,-0.002166,2.293828
0.072013,1.400118,0.808066
0.165834,1.258226,0.730446
-1.743247,0.683886,3.204096
0.493643,-1.241474,1.668453
-0.640232,-0.758385,2.152213
0.425284,0.213127,2.411451
-1.657639,0.303896,3.782325
-0.045335,0.295065,2.832060
-0.954394,0.988027,3.179077
-2.566583,0.200332,2.714962
-0.119670,0.190272,0.787794
-0.187090,0.125435,0.721633
-0.127600,-0.543321,3.063561
-2.509601,0.292668,2.695657
2.106007,0.396430,1.405347
-2.009024,0.604943,2.770079
2.290238,0.112712,1.964163
-1.820503,0.063695,1.481195
-1.151130,0.216254,4.026058
-0.377606,1.341079,1.798285
-1.988535,-0.364083,2.941644
-1.122713,0.744110,3.720186
-1.224283,0.924302,3.375109
-0.671217,-0.717156,2.180593
-0.031922,-0.359023,3.209863
-0.748006,-0.396743,3.959094
0.997961,-0.862818,0.486878
0.415159,-1.359923,0.932790
-0.807682,1.130502,1.729183
1.258973,-0.856840,0.681427
-0.928973,1.060955,0.661921
0.002776,-0.271474,3.036395
-0.255895,-0.378446,0.047020
-0.347290,0.374894,3.770634
1.545991,-0.602399,0.699835
-0.607026,0.978593,0.406798
0.068858,-0.251902,0.025732
-1.580029,0.780223,2.820578
-0.277902,-1.130105,1.987629
0.405276,-0.639443,2.275658
-1.999566,0.288428,3.108724
1.217671,0.177160,0.256159
1.083611,-1.096061,1.260461
-0.028530,-0.358152,3.030000
-1.160464,0.709895,3.752455
2.253377,-0.214430,1.586118
1.119355,0.159656,2.245546
-0.579563,0.764633,3.576116
0.026752,-0.224360,0.739115
0.915711,-1.056865,0.691303
-0.390378,1.312843,1.840022
-1.979588,0.088739,3.448582
-1.632089,0.740432,3.293221
-0.707213,-0.942341,3.226801
-1.037994,-0.565820,3.887993
-1.908654,-0.389186,3.375061
-0.129947,0.184418,2.463502
0.764305,0.707537,0.246000
-0.172909,1.396390,1.721335
0.318176,-1.383830,1.202364
-1.336213,0.282993,3.962576
-0.420338,-0.657756,2.589183
-2.252562,-0.473661,2.832508
-1.318440,0.868839,1.678814
0.162449,0.349735,2.413992
-0.964257,0.996388,3.120306
0.718744,0.629063,2.220417
-0.126129,0.178403,0.964516
-0.864443,1.183033,1.586043
-1.630663,0.129942,2.268790
-0.502927,1.061090,0.471363
-1.052388,-0.545450,0.217579
-2.305748,-0.321314,2.901544
-1.855922,0.522288,3.181716
0.029146,1.476292,1.405152
-0.532850,-1.384388,0.975041
0.273076,-0.964998,2.046383
-1.828564,-0.295208,1.237603
1.912711,-0.346493,2.105468
-0.890063,-0.864139,3.556150
-0.089857,1.486804,0.955921
0.908661,0.603601,2.180206
0.770948,0.053260,0.074347
0.393148,0.933024,0.323361
0.987525,0.376765,2.234500
-1.750320,-0.312006,1.566897
1.586709,-0.107178,0.497438
0.966087,-1.021724,0.666235
0.049001,1.059088,2.025603
0.959438,0.758457,2.071150
-1.667168,0.611987,3.540801
-1.043630,-0.708879,2.051530
-1.406184,-0.810453,1.658083
0.021714,-1.075262,0.428887
-0.201913,-0.106517,0.421445
-1.909852,-0.471917,2.963184
-0.380827,-0.956263,0.343562
-0.437227,-0.798675,3.344058
-1.399123,-0.604795,1.890354
1.546706,0.854955,1.481707
-1.582694,0.093917,1.924664
0.755633,-1.044103,1.916444
1.974216,-0.468763,1.192263
2.241376,0.059092,1.425384
1.599959,-0.829172,1.183998
-0.726676,-0.312646,0.065166
-0.893401,-0.233873,0.084114
-0.231080,1.333795,0.809526
0.855151,1.203074,1.446011
-0.226318,0.009959,3.761253
-0.010066,0.310957,2.431710
0.221382,-0.323924,0.035930
-2.241978,0.060102,2.595432
-0.318401,-1.483258,0.999783
0.150865,1.388139,1.742359
0.792787,-1.133139,1.750908
-1.105949,1.103231,1.074070
-0.293655,-0.731522,3.104218
1.577574,-0.763864,1.728401
1.076818,-0.994770,0.716854
0.170176,0.149991,0.804679
-0.970101,1.182363,1.122156
-0.146760,0.545494,0.086902
-1.542330,0.239115,1.943314
-0.260430,-1.039186,2.002306
1.008163,0.571252,2.164588
1.095630,1.017743,0.792897
-0.656648,0.872411,3.428102
-0.434597,-0.512629,3.750590
1.628138,0.716709,0.940911
-0.438742,-0.832071,3.192628
0.055189,0.220365,0.478820
-0.518016,-1.481569,1.159177
-0.972049,0.736419,2.061664
1.696005,0.682104,1.000388
-0.128847,0.310122,3.551696
-0.234870,-0.674829,3.136386
-1.629499,-0.703917,2.717084
-2.164179,-0.485559,2.509157
-1.434996,-0.797158,1.631156
-0.742160,-0.680086,3.762758
0.140125,1.483613,1.293879
1.571546,-0.399403,0.580848
-0.907644,-1.194271,1.032347
-0.850493,0.494467,0.132350
-0.640332,-0.932312,3.040412
-1.214405,0.407368,2.179080
-0.593312,0.632426,2.262743
2.258396,-0.243552,1.719972
1.384143,-0.910715,0.940959
2.302844,0.111432,1.682927
-1.761239,0.236987,1.584790
-0.216584,-1.353903,1.807783
-1.304906,-0.717315,1.873591
-1.622106,-0.114076,2.260906
-0.481360,-1.246143,0.759956
-0.778673,1.236429,0.997154
-1.173511,0.988469,3.162934
-1.722145,0.010969,0.606568
-0.908264,0.975170,3.252373
0.716593,0.043094,0.063684
-0.779929,0.746593,3.700650
-0.228595,1.322131,0.798827
1.118353,1.042686,0.892047
-0.918368,0.405353,0.119917
1.277893,0.998065,1.084454
0.678335,0.386993,2.316050
-0.655905,0.672778,2.220084
-0.046584,-0.459628,2.380698
-0.931791,-0.657933,0.234629
0.123179,-0.048548,2.469655
-1.704172,0.126377,3.794445
-2.588595,0.091785,2.710750
-1.219500,0.892950,1.749744
-1.201677,-0.858465,1.810530
-1.030268,0.651854,0.272629
0.133058,-0.676353,0.135234
-0.899439,-0.610865,0.197240
1.815106,-0.588291,1.860281
-0.852602,1.251444,1.337109
-0.141708,-0.115793,3.651945
-0.796272,-0.166172,0.060233
-1.789105,-0.549100,3.391719
-0.183402,1.222751,1.969272
1.514754,-0.260186,2.179532
-1.317259,-0.618530,2.379932
2.240584,0.243987,1.892371
1.656321,0.161608,2.209248
-0.094936,1.004688,0.363134
0.181149,-0.139639,0.155843
-0.175719,0.241160,2.531791
1.987186,0.343341,1.077519
-1.630239,0.147264,2.272161
0.645276,-1.304237,1.015035
-0.756907,0.802951,2.544121
0.534804,1.070258,1.969480
0.648585,0.493491,2.292922
-0.890060,-0.112603,4.057220
-1.133205,-1.005353,0.764268
-1.437725,0.884223,1.378308
-0.055761,0.375232,2.908696
2.233896,-0.256300,1.575863
0.043518,1.182486,0.563834
1.946973,0.261138,2.151155
-1.156008,0.714209,2.413896
-1.510669,-0.823214,1.104793
0.530977,-0.042853,2.405768
-2.229975,-0.299734,2.923238
-0.902853,-0.544295,0.164133
0.358496,0.157039,0.026720
-1.316172,0.190785,3.990864
-1.810319,-0.222259,1.448428
-0.105456,-1.450867,1.556284
-0.227560,-0.688602,2.251552
0.496150,1.044853,2.005458
1.391625,0.945497,1.139255
0.945192,-0.842908,0.437640
-0.222779,-0.420044,2.577242
-0.065655,-0.434379,3.018410
1.622240,-0.518291,2.028203
0.697288,0.446903,0.106493
-1.787566,0.417711,1.100629
-2.029218,0.121586,3.227852
-0.815018,1.154782,1.681646
1.011073,1.108322,0.940191
-1.456590,0.574302,1.858116
1.937492,-0.023307,0.879176
-0.603833,0.807182,2.118596
0.163830,-1.459422,1.457093
-1.639085,0.676764,1.288190
-0.256701,-0.576901,3.486356
0.148916,-0.174064,0.403651
-1.873742,-0.411483,3.413697
0.088153,-0.216073,0.105454
0.850661,-1.093718,1.794156
-0.932707,0.527487,3.913274
-1.072203,-0.998681,3.152426
-1.252776,0.836989,2.610906
-1.577274,0.704859,3.529566
-0.797891,-0.628956,3.824919
-1.111041,-1.113490,1.384082
-0.356527,0.503498,2.487007
1.738884,-0.408174,0.763592
-0.829572,-0.979271,3.063095
-1.672528,0.534816,0.823661
-0.184876,1.152578,1.998861
-1.853620,0.002237,1.034731
-0.407291,0.695468,2.231742
-0.206217,0.888950,2.112035
-0.905328,0.577614,3.880735
-0.276213,0.705249,2.965550
1.726576,0.541628,0.859939
-0.028395,-0.300051,2.901937
-1.244034,-0.291585,3.987233
-1.678664,-0.741398,3.092483
-1.602070,-0.712614,1.037377
-0.350118,1.322181,1.834994
1.432728,-0.930649,1.254296
-1.841363,-0.015286,1.399095
-0.726858,1.283054,1.629425
-0.436348,0.804092,2.861938
-2.301538,0.027077,2.688072
1.483912,-0.856855,0.978200
0.108153,-0.755306,0.176467
-0.378254,-0.112961,3.879563
0.593466,1.107921,1.901805
-0.232354,-1.394049,0.852686
-2.004197,0.552652,2.839096
-1.527639,-0.436621,1.872548
-1.978142,-0.121292,2.290145
1.362342,0.953998,1.083536
-1.118743,-0.993114,3.178014
-0.215300,0.066838,0.826518
2.228839,0.267258,1.579326
-1.604981,-0.514031,2.475772
0.041156,0.064779,3.097455
-1.814593,0.172383,1.464577
1.863544,-0.472849,0.992774
-1.436825,0.811096,2.712120
-0.334624,-0.573457,3.600975
0.118662,-1.491402,0.976797
-2.119263,0.522282,2.830523
-1.475663,-0.843924,3.394312
-1.480223,-0.693406,3.631276
-1.264955,-0.902774,1.691221
-1.766062,0.460823,2.449630
1.188515,0.164062,0.239083
2.317671,0.070273,1.808819
-0.493739,0.537962,3.771933
-1.011842,1.045574,0.712311
1.428594,0.740182,0.709505
-0.655783,-0.936006,3.136784
1.149917,-0.957527,1.737293
0.823343,-0.991141,1.953275
1.664656,-0.798773,1.321242
-1.563316,-0.668370,3.594518
0.381887,1.279069,1.644054
1.037246,0.277796,0.185157
-0.898607,0.756529,3.713114
-0.231966,-1.349880,1.813592
-1.781732,0.161548,0.757239
2.173129,0.249952,1.374863
2.316586,0.016795,1.726052
0.221341,-0.036280,0.866567
-0.293597,-0.436079,2.390810
-0.758319,-1.189860,1.664186
-1.661734,-0.146349,0.527020
-1.167550,1.077683,1.384900
-1.695071,0.374920,1.648034
2.180440,-0.349963,1.587710
1.142488,-0.769420,1.989355
-0.084914,1.502824,1.203158
0.716824,0.961372,0.439851
0.677993,-0.366218,2.322142
1.582478,-0.845106,1.208483
-0.058569,0.164647,1.009800
-0.497115,0.863513,2.979879
-0.269766,0.539221,2.634365
-0.156027,-0.362709,2.416137
1.001419,0.251503,0.166687
-1.714276,0.350166,0.704316
0.136958,-0.388875,0.044900
0.777820,-0.436995,2.276986
-1.106814,0.324778,0.160167
-0.072705,-0.099884,3.542313
0.809409,1.114706,0.737520
1.475058,0.908284,1.253478
0.513364,1.297937,1.438689
0.137122,0.503401,2.360243
-0.095618,0.390241,2.794386
-1.492378,0.878881,3.009402
-1.521616,-0.801784,1.042058
-0.083623,0.211507,0.870300
0.190324,-1.490729,1.166194
-0.271377,0.103114,0.021401
-1.273458,-0.464216,2.086426
-0.225562,1.144004,1.996155
-1.537599,-0.802636,1.225780
-1.726408,-0.215897,3.756383
-0.314208,-0.738771,2.965551
-0.630321,0.011118,0.038743
-0.890361,0.828418,2.015057
0.510670,1.206111,1.780697
-0.108879,-0.079173,2.575149
-2.043783,-0.582832,2.615548
-0.179844,1.497584,1.247319
