x y z
269.613870,281.364955,272.140100
305.351677,19.113497,-326.086023
303.880278,414.170714,272.140100
861.477500,381.279136,-37.222095
211.894170,300.520252,208.433088
770.179567,-5.054700,-328.957596
-449.841353,70.395860,-285.079600
793.926285,287.170204,-356.469700
471.969309,527.196045,336.220251
102.117103,527.196000,320.123623
268.933381,421.921194,-285.079600
-69.179740,325.092899,-226.981202
-48.831665,157.210190,175.719412
511.439801,344.588173,-356.469700
567.369434,127.170792,-356.469700
536.564253,517.057144,-270.730227
750.316986,555.461701,-356.469700
611.983546,209.892354,-181.884073
-674.760318,444.887597,12.724678
-228.436448,165.306520,177.617999
-770.198612,447.756304,-356.469700
616.690829,337.146687,215.746067
-554.592775,359.995444,-356.469700
-389.683034,568.554261,343.530300
416.726952,241.727972,272.140100
-707.261376,372.681188,343.530300
829.965363,527.198008,337.400281
287.855293,185.511028,-356.469700
861.447096,513.961893,110.670215
-47.043887,137.526152,171.173915
576.950950,239.009352,193.531385
819.261175,32.460763,-74.067470
687.212231,345.616361,110.246459
-796.293015,415.336360,159.590608
-679.007079,451.151997,0.858641
20.759420,214.771909,-201.796691
478.722656,174.016298,179.629595
531.325912,361.259639,-235.232367
-349.940579,190.413507,-285.079600
-511.972083,1.167146,-317.763994
580.689058,522.228843,-285.831143
-739.526909,540.578543,50.104593
-820.218191,450.829123,343.515483
861.477500,436.255307,14.539976
-617.275136,457.342851,-254.330830
-409.802762,79.188885,272.140100
-6.442026,56.127801,-285.079600
81.868409,341.682437,-285.079600
286.024954,167.165290,-190.938869
-796.283879,418.866347,-192.906378
250.079155,163.575137,177.175009
-311.431986,477.054263,-285.079600
126.579103,201.023015,-198.658027
564.143086,120.399600,-166.230757
-257.800068,281.621093,204.135901
819.261128,41.747284,80.996452
861.477500,154.644568,-208.195691
340.819239,318.614564,-225.505163
-191.798990,345.485507,-285.079600
165.100383,160.584062,343.530300
-313.268784,399.218688,343.530300
-83.168711,207.587148,-356.469700
-183.909407,489.256562,-264.449715
-134.851318,337.988093,216.986362
836.341223,146.679164,-356.469700
619.141893,168.564368,36.014839
861.477500,543.365025,7.472873
-369.902449,69.520043,272.140100
-28.090520,77.105208,-285.079600
266.453585,167.391669,-356.469700
-194.692180,120.399600,-51.562944
621.227466,406.012656,-245.097424
-773.944556,246.733764,-285.042439
-295.765645,488.840953,251.393131
-412.728955,497.801233,-285.079600
20.052756,168.751729,272.140100
861.477500,67.677641,-84.719922
-477.574134,150.353542,-285.079600
470.718617,419.929041,343.530300
-796.306151,369.976450,-75.966633
-610.373379,578.981900,-333.105964
816.903400,92.214988,-284.186918
-589.439088,578.981900,-346.216788
-831.993337,158.259998,343.428149
819.261108,126.488348,34.820071
861.458382,481.700971,-339.937733
13.647084,-4.925801,297.729211
721.828583,398.880946,-356.469700
-120.705133,222.751551,272.140100
322.974599,120.399600,39.325136
-836.367258,578.563272,229.029587
844.088693,578.981900,281.094892
65.207504,308.265520,210.200404
498.654574,412.681581,-285.079600
75.664035,545.460394,-277.287974
-347.569153,494.397866,-356.469700
-363.432234,376.790124,272.140100
-796.306183,230.686886,67.227029
366.372280,478.873905,272.140100
-796.306199,258.332433,-16.460633
-762.528944,159.966941,-285.058349
-758.467680,419.448802,-285.064009
573.454752,139.340500,272.140100
-796.306140,154.711339,34.366949
-777.693734,152.432599,-356.469700
-470.156701,315.884569,343.530300
442.621689,527.196000,-340.177537
861.477500,127.609171,97.474487
349.374738,375.774547,-285.079600
507.411230,39.258683,322.445551
-838.505749,28.924263,128.375303
411.025898,524.366518,315.224633
745.140207,534.500529,-219.043509
-746.298058,162.481876,-285.079600
-279.990739,416.193015,234.820705
-544.637760,254.046277,-356.469700
861.477500,48.546503,-234.864612
819.261133,335.454716,-143.397162
-789.755699,65.863217,343.530300
774.656555,420.606622,-285.073439
-206.645608,442.270843,-356.469700
148.624005,120.399600,-169.910265
638.848982,219.142034,-356.469700
-540.713950,578.981900,286.160054
823.189708,543.432468,343.530300
-692.602604,510.334708,-241.277573
861.477500,160.542266,100.681389
854.849664,578.910733,-310.688066
58.273841,536.697958,-356.469700
-838.478810,9.964007,-297.012211
-7.814863,445.153471,-356.469700
-1.147365,126.896929,168.591508
650.657194,276.746673,159.475587
297.335225,489.334228,-285.079600
334.989108,0.570283,304.516360
621.097280,300.004923,343.530300
-55.745139,152.400129,-285.079600
208.629098,524.351744,-301.058865
-838.522500,430.220874,90.839411
-443.209321,394.076052,-356.469700
-598.756836,521.320481,272.506433
-39.713105,77.430963,-285.079600
51.297129,527.196049,326.601042
-83.766420,243.698844,195.463485
466.650776,532.769941,-274.339829
-655.579468,360.516973,343.530300
424.483554,413.580202,-356.469700
-257.532375,76.366545,-285.079600
-584.452570,20.705662,313.908394
-838.391115,3.631203,328.129846
389.568967,474.974753,-356.469700
-137.017185,120.399600,-10.958233
540.979577,120.399600,-31.234892
151.911783,120.399600,-39.872331
816.455381,371.534408,271.489857
778.837989,1.147907,-285.169512
-696.623465,277.935140,-285.079600
-48.737374,238.767324,272.140100
759.247657,394.630084,-356.469700
75.481233,28.240704,272.140100
-80.868045,128.394766,-356.469700
-838.522500,560.391763,-13.767078
819.261200,286.598402,-108.891016
575.464297,182.546261,178.027518
-310.039215,326.437184,343.530300
598.849797,233.026867,-285.079600
-655.125760,422.168507,-150.549956
-838.518472,39.301166,99.989639
248.423522,407.890542,343.530300
485.832511,24.639390,-328.647420
307.759876,490.580320,272.140100
-44.839302,497.901191,-356.469700
167.483012,273.177262,-215.130151
861.477500,162.353953,278.152822
51.278472,477.075310,-261.676686
-786.334059,209.865771,272.024826
-378.736365,577.156494,-355.871547
-130.800496,330.125935,-285.079600
359.370507,448.509056,-356.469700
-31.283712,120.399600,63.721843
-540.162566,246.383600,-39.411669
-54.043543,120.399600,72.959983
-838.522500,330.580217,-295.308801
-827.827660,240.022211,-356.433734
-32.950205,362.534485,343.530300
448.808010,217.289275,-356.469700
-611.990623,208.838043,343.530300
819.219349,314.599063,-236.262572
551.014503,289.293670,205.857141
335.214269,256.526718,272.140100
156.448127,527.196000,-328.890320
861.477500,562.050874,249.847670
16.234191,54.415349,329.387674
-161.850956,216.389935,-202.181020
-796.298973,169.081014,-159.182818
168.372320,477.121473,-285.079600
-479.929804,46.123899,272.140100
-426.079874,134.947156,163.547427
-566.770116,0.487896,-317.451961
645.634210,578.905510,-351.084128
741.028235,562.911387,-261.418644
294.675337,132.677619,170.043754
571.837154,513.903645,-356.440237
861.332603,133.768516,-351.925364
-796.292574,122.686165,160.395106
476.590337,126.229494,343.530300
-796.276288,124.794939,-209.507409
433.931482,496.111035,-356.469700
847.471651,200.270117,343.503536
713.621126,284.856507,-285.079600
837.658427,524.364332,213.676097
861.477500,468.810066,-125.760518
52.252281,254.738690,-210.920510
754.159514,558.494126,209.721194
-838.522500,48.237799,90.338210
130.863670,211.607464,-356.469700
-344.391597,52.251639,272.140100
-598.523100,367.093995,343.530300
-838.522500,164.257811,269.910889
367.886968,34.564490,-333.207270
526.146571,524.366551,300.098110
367.817983,2.256499,272.214478
688.194279,352.863440,-146.749850
-572.810506,161.684882,343.530300
383.580130,252.821684,-356.469700
845.746040,8.055974,-356.384319
-565.501552,360.817848,-231.095291
91.915602,251.293885,343.530300
-750.496676,558.518726,106.237169
-413.740895,184.273761,180.811639
615.143175,246.108323,-285.079600
-541.944604,249.022462,28.305355
-68.186805,530.020800,-356.217256
403.410136,120.399600,-171.894687
-37.030298,467.068574,-285.079600
-732.718184,578.981900,-332.749917
128.238395,527.196000,336.917309
861.477500,465.848531,99.948911
-523.306261,360.030877,272.140100
765.226717,315.191551,-356.469700
456.269301,188.761079,343.530300
-838.522500,46.485546,-213.508528
861.477500,122.572716,214.397413
428.518938,114.462796,-356.469700
193.999980,524.019499,-288.209323
208.112148,-4.774885,-288.500182
-633.631859,578.981900,286.464067
298.222366,120.399600,-41.478465
649.931714,27.879089,317.243473
808.195798,318.355169,-356.469700
574.715636,233.950445,192.396973
-665.398300,132.902967,-356.469700
-198.307658,347.682080,-285.079600
-783.221062,125.071990,-356.469700
218.371527,435.266274,-252.130386
-773.015648,493.231945,272.104311
-277.639722,155.075527,-188.190875
861.325641,-0.511079,114.573560
306.545178,486.330020,343.530300
193.998486,124.701316,-356.469700
720.226282,488.481702,-356.469700
-796.306144,465.290361,34.889720
355.683233,401.809644,-244.486877
-681.174802,400.949117,272.140100
-121.438179,524.366529,-325.906789
-837.746605,522.282401,85.936214
300.854205,524.360931,290.856113
660.852048,77.631540,-285.079600
214.861134,97.673799,-285.079600
-662.935633,578.981900,-317.876517
679.615185,527.196000,-344.086981
771.903508,190.160962,-285.077276
-838.522500,147.603908,135.318705
624.468787,229.875634,-180.154030
819.261187,499.070191,-103.184468
437.499309,120.399600,-107.271725
616.249635,447.939109,-356.469700
-159.409020,524.366500,315.845269
-796.272032,126.949891,-218.960457
221.461519,338.513431,-230.045576
-838.522500,332.048000,68.202027
186.586835,375.440120,-356.469700
861.477500,397.202619,167.431734
-159.980966,561.015460,267.895011
-25.605139,457.825512,272.140100
-59.707727,578.981900,-318.193936
-275.699813,504.268013,-356.469700
-827.745326,578.981900,-34.280303
819.261123,466.448770,-90.335033
-796.306137,149.260274,-32.871548
332.836552,417.555387,-248.082600
-237.508619,161.602970,-189.710913
-44.991717,382.273499,-285.079600
171.310888,578.981900,313.941433
-246.359203,325.689866,-356.469700
-92.395495,458.547384,244.506592
718.759950,-5.054700,-317.680520
654.148420,437.907254,-356.469700
-38.873974,431.925012,343.530300
-796.306161,341.790828,-90.484166
-513.062150,206.517398,54.138021
650.939847,275.617713,272.140100
-838.522500,97.321834,246.977974
-25.912247,151.794225,-285.079600
339.064301,161.247139,272.140100
288.032861,271.196191,343.530300
819.261200,338.913402,-117.774731
189.661580,528.874357,-273.499623
-352.179448,125.118156,272.140100
526.422870,175.589343,343.530300
742.631279,167.925858,-356.469700
861.396917,517.725403,-212.738670
-169.406847,150.765311,343.530300
-561.544184,298.315904,-181.459750
-176.242084,110.694838,-285.079600
-403.240320,462.779079,245.380381
-667.436432,347.557518,272.140100
-243.054339,310.621082,-356.469700
658.248332,288.085387,152.003425
531.307964,279.487209,343.530300
116.608018,171.817584,272.140100
-388.371525,515.124820,-356.435336
-838.522500,538.858584,-237.065623
-327.994652,358.764728,272.140100
488.729801,101.204101,272.140100
-656.610762,460.140839,-285.079600
-703.694050,578.914210,-350.639413
-17.475994,327.185645,-285.079600
-838.522500,469.194533,-48.645603
289.012964,578.981900,-346.020006
819.231007,296.845441,197.361187
-790.392488,239.550500,-284.916163
707.053998,245.576491,343.530300
-796.276617,208.616840,195.942553
667.073240,557.904833,343.530300
-70.105858,248.789143,-285.079600
175.021784,3.550714,305.918439
162.818373,120.399600,38.187650
423.319996,524.309228,-348.584283
275.243594,283.083003,272.140100
-203.211181,-1.545705,-285.339046
319.772043,482.428118,249.948752
334.540169,527.196000,317.102154
-489.650289,20.291906,-326.647142
670.963902,534.791707,343.530300
-153.523101,578.959756,279.123375
-544.835145,352.182823,272.140100
-823.232063,527.196042,-187.577026
-174.784761,120.399600,-131.092981
-500.794902,210.464272,-285.079600
819.261200,288.220535,-128.327408
312.056888,36.776217,321.286084
-838.481614,296.627662,-347.203404
144.966174,-5.020476,294.488152
115.722505,214.019755,343.530300
-796.306158,185.520690,-138.709781
57.648036,493.302917,-265.381226
391.952802,320.963029,-356.469700
541.021023,512.732072,-269.742401
-488.245844,524.329416,281.468167
720.181794,482.785939,-285.079600
467.496809,120.399600,97.253101
-796.346885,-0.203380,-258.302872
524.846421,52.132008,272.140100
289.634173,120.399600,-138.516273
-602.659427,313.938000,272.140100
-826.015325,527.196000,180.553282
-164.869515,143.732567,172.654208
-798.115010,523.400480,165.367447
-69.569806,524.264048,-350.366657
-769.566017,578.981900,309.993701
-838.504565,27.958631,-49.663518
-579.669726,447.487386,-356.469700
-436.369401,290.197484,272.140100
748.668796,527.196032,322.438224
-55.516299,143.206314,343.530300
133.418386,172.280963,343.530300
501.569698,349.652021,-232.587593
303.142945,365.188406,223.194014
-83.557735,120.399600,-32.018721
-838.522500,442.432550,-294.874734
-814.118178,524.365737,-324.808394
-822.740853,-5.028268,-261.258585
136.810802,140.368822,272.140100
-549.233399,216.612309,343.530300
157.432650,386.657364,228.095849
861.477500,69.544448,-93.899073
587.968142,566.334046,269.002942
-4.806438,245.284466,-285.079600
819.146793,285.947726,-263.208848
390.498469,276.545722,343.530300
861.477500,405.119424,186.015492
21.350894,450.273691,-255.558264
524.830583,167.553619,272.140100
138.030020,120.769905,-178.033809
313.647039,535.605826,-275.025231
557.570274,119.084174,-285.079600
738.481882,147.625691,-285.079600
-187.754765,37.922191,321.814184
233.544650,123.142377,-356.469700
861.477500,85.269484,112.083484
101.499586,259.027571,272.140100
805.150580,578.981900,-199.514687
861.477500,66.512004,5.025553
108.060223,133.038726,343.530300
675.959248,313.913913,64.531324
-521.179382,-4.663745,-288.018467
307.788828,333.423339,-356.469700
783.531868,322.414565,272.121610
609.624416,147.067293,-125.660575
744.551798,459.624896,20.914814
379.398705,97.007997,-356.459496
-649.310955,408.783703,-107.595419
861.477500,334.888867,317.171888
179.366972,561.354680,-280.914655
832.109861,524.357902,261.695930
861.477500,56.840171,46.662675
-53.502756,7.370757,-320.654995
-34.747204,0.325312,304.401119
359.393649,380.746683,-356.469700
-501.211525,10.011428,272.158833
-731.896043,578.981900,-319.590429
-796.284925,485.911572,-190.552688
-768.605940,348.900940,272.110443
532.278477,383.891517,272.140100
272.994699,242.943666,-356.469700
-301.926302,120.399600,11.630587
861.477500,294.552428,204.251939
819.753798,521.710927,182.066078
-608.969470,478.382493,272.140100
-183.277447,278.834237,343.530300
-236.090870,371.923577,272.140100
235.861197,1.582911,-317.932229
-838.522500,117.663974,160.383943
-168.622423,147.592110,-356.469700
77.368384,578.981900,284.016507
-322.865741,30.765308,318.516071
14.341304,416.780433,-285.079600
463.080596,578.981900,333.739117
-459.133150,130.055654,-125.847706
244.744728,371.036283,-356.469700
-608.333333,209.401950,272.140100
819.261200,293.046687,-32.874154
861.477500,199.104651,-162.764272
271.013743,51.335564,327.974221
-838.522500,116.447133,73.620733
262.682477,120.399600,7.359309
-533.196798,333.235581,343.530300
819.261200,179.707268,89.370918
473.098413,133.026688,-183.121810
286.118909,140.300877,-285.079600
-27.055997,297.509302,207.744986
861.440482,12.429086,74.095990
-501.129086,527.196000,328.267683
177.254205,297.709512,272.140100
-323.298817,332.487013,272.140100
76.800866,281.940474,204.190776
-838.495227,20.342611,-3.196370
-565.954456,332.515420,-215.151900
523.298665,578.892982,-351.552840
238.569098,477.365664,272.140100
483.352095,345.956841,-285.079600
330.564614,241.438747,194.956645
511.968734,61.995359,-345.821945
-275.696704,370.358506,272.140100
643.187696,383.678319,-285.079600
-641.469683,578.981900,281.946460
51.486847,578.981900,310.808034
-838.522500,446.274019,-97.519558
-432.829620,189.013742,343.530300
448.912527,402.652327,-356.469700
-224.627790,176.176032,-285.079600
-47.588076,275.571049,-215.676603
819.170369,280.089707,244.340471
-796.306188,239.110987,53.554391
-796.306106,95.892166,-41.199494
43.244141,567.813499,269.454757
-654.056638,99.295674,-285.079600
-726.390219,48.637378,272.140100
380.080333,524.359935,-303.498934
137.064597,449.612729,-285.079600
-420.682220,133.132084,-285.079600
-228.996621,120.682980,-356.469700
788.570513,578.981900,-215.554826
757.096863,114.944437,272.140100
-220.264971,92.386232,-285.079600
96.319725,578.974164,-292.869552
-795.109522,446.847006,-356.469700
-822.655633,152.375655,-356.448108
-1.695761,402.138306,231.630188
683.004398,353.953022,161.490043
-372.406545,578.981900,-321.646764
323.946562,527.196063,-337.891515
-39.649481,394.793941,229.953623
819.261186,186.552366,-133.648159
406.566956,389.939629,-356.469700
20.098870,418.748998,-285.079600
651.234037,471.471668,272.140100
36.377620,154.151669,-356.469700
718.737586,484.104002,-231.237515
-182.154567,262.775049,-212.763504
630.472540,386.338031,272.140100
861.477500,317.920514,267.270833
161.162007,578.981900,-335.940490
-81.461447,524.366500,295.985610
731.282839,175.844083,-356.469700
216.977771,185.806422,182.247546
-68.045162,312.364351,-285.079600
541.257596,120.399600,-136.460606
-838.495695,20.724489,-76.223438
-749.761159,275.566294,-356.469700
-823.750829,-5.029442,311.517748
-486.402313,413.583010,-356.469700
819.261145,324.343389,-19.273230
-796.306137,374.434116,-2.375785
394.175850,379.246631,343.530300
251.730694,432.119397,-251.411176
-796.306143,159.011464,-42.315393
-456.093581,578.981900,-327.453389
-313.938360,147.446667,-285.079600
601.944384,266.219001,-285.079600
-563.525758,219.122636,-356.469700
-58.918993,285.029663,-356.469700
819.216790,283.346612,228.956556
861.443839,514.785489,-215.942999
336.216849,448.096973,-255.052078
-200.449400,564.044982,-356.469700
-529.165314,278.024858,343.530300
806.811585,505.718714,-356.468292
303.066546,72.698031,-285.079600
-20.585798,476.909778,248.699449
-523.717472,439.849077,-285.079600
-838.522500,234.975778,-159.318225
580.217262,358.159255,-356.469700
-838.522500,75.260490,207.813181
456.297486,277.655784,203.239040
474.631335,155.014906,-285.079600
341.158675,114.093404,-285.079600
-796.293741,359.416433,-170.918040
-705.156151,507.292905,-195.809998
701.423042,371.133434,343.530300
275.791352,120.399600,131.704325
664.519930,285.915027,96.579789
251.499559,245.887216,-208.903302
-395.451035,290.678903,343.530300
419.461716,416.876314,-356.469700
-289.989620,466.911574,272.140100
230.889288,302.601020,208.908412
196.956441,506.719880,-285.089897
696.031185,47.556984,-339.275760
819.261149,398.312400,-79.952325
-753.698679,523.990248,275.137504
396.875849,160.919079,176.604385
861.467979,69.834278,323.620546
-838.522500,278.256873,-65.546511
510.406401,120.399600,-124.833974
-610.361695,578.977110,279.823248
-739.345109,541.369537,-103.782579
-456.942460,514.395278,343.498773
-585.487341,396.368943,343.530300
809.453989,440.025550,-356.469700
-421.665196,391.038102,-285.079600
11.794741,478.469517,-356.469700
-365.660830,185.126515,-194.735373
806.688612,578.981900,-78.641685
400.740605,477.195238,-261.681204
-676.645902,448.111714,-78.306057
597.131551,432.415820,-356.469700
-149.455906,300.081132,-356.469700
-796.306200,386.800279,120.206976
124.567602,4.879376,-285.115110
-796.306144,161.988143,-109.637876
819.241841,456.273100,173.394418
819.144411,102.238958,-263.785562
-796.292149,167.698743,161.395927
-132.606002,324.847174,213.987215
-589.094902,504.287127,-285.081944
-308.347153,441.256967,-253.471678
79.111308,124.755706,272.140100
855.370135,578.901709,219.730266
228.168634,274.040146,343.530300
-652.310888,3.932847,-285.118204
-238.383590,120.399600,-94.178181
861.477500,142.017229,-271.864366
-156.122711,338.376634,-356.469700
819.254385,461.413519,-158.382790
-326.426727,464.279756,245.779566
-838.522500,290.061770,253.568247
762.586787,156.843859,-356.469700
375.209281,260.284089,-356.469700
57.944053,330.831585,215.351919
853.147384,527.196055,-78.963885
-735.820817,483.594206,-285.079600
-796.288115,272.406529,170.471890
143.809355,120.399600,-100.656805
-340.355369,527.196042,322.945429
791.796600,98.782656,343.530300
-118.155572,212.495306,188.345682
788.783410,402.092217,343.530300
410.037046,108.827831,272.140100
-838.522500,503.314587,165.987934
-244.122967,272.067436,-356.469700
-478.378371,561.239905,-280.696081
861.477500,82.240555,-18.823345
-269.485998,576.734658,-288.878700
351.395763,127.254409,168.710274
819.260803,400.538881,-144.131816
-434.964991,489.883961,-285.079600
-796.306100,35.343058,-92.276697
127.609503,120.399600,-145.112912
-720.264434,369.025644,-285.079600
-22.021582,578.981900,299.296653
-796.259690,276.992023,233.186395
764.033907,576.437971,-228.696848
310.029706,404.552616,-245.116927
26.645883,120.399600,-81.874411
-462.719735,107.580456,343.530300
-436.413031,79.931361,341.069254
-59.698569,-5.045021,-302.131627
-75.252943,503.590663,343.530300
-796.299715,76.279355,144.514915
-201.483517,298.065063,272.140100
-575.868576,121.188950,-356.469700
-236.679047,524.090881,259.454112
-460.882352,129.514596,52.635430
814.171832,578.981900,-114.884757
303.368652,-0.564369,272.284634
532.736793,99.079475,-285.079600
-26.385696,516.767104,272.207313
-618.377241,145.692429,-356.469700
715.751452,462.409393,201.687189
-128.980604,120.399600,162.039979
-799.870783,578.981900,-26.573844
671.343889,475.481907,-356.469700
-556.721194,311.645515,272.140100
-838.522500,346.387395,14.104896
-746.882140,220.877804,-356.469700
861.470433,507.962696,-113.356937
-392.959092,419.751226,343.530300
1.867990,442.622707,-253.811655
765.337472,462.611618,272.140100
-115.853085,323.236957,213.619064
802.527164,72.632574,-285.034595
861.477500,351.350202,-232.230787
225.115016,133.128763,-356.469700
55.417047,1.174394,-317.740051
400.004349,336.458725,216.638346
861.477500,471.262519,-73.920030
-319.783244,246.269275,343.530300
-523.150776,354.380749,-232.291533
-801.056976,-4.916422,26.140094
-112.939473,524.333481,-345.993316
323.695730,288.268046,-285.079600
-579.247659,325.482274,173.923939
-248.979843,384.667267,-285.079600
1.680992,578.981900,291.253097
13.657989,578.891794,338.657712
843.805282,304.291764,343.513726
752.735029,558.442679,213.917018
-165.826648,421.820441,-249.057869
579.309806,420.095920,-285.079600
343.939188,524.366500,-321.851440
-321.165971,298.054313,343.530300
566.005127,209.264125,-199.658418
-518.410687,394.636576,272.140100
-18.482665,415.581852,-247.638633
-128.479252,184.369195,343.530300
302.882739,336.849752,272.140100
99.501449,5.317586,306.749626
861.477500,141.796412,-186.110610
670.479537,299.878232,31.927512
410.722786,578.981900,325.203433
457.240972,578.981900,-338.298870
-459.782443,492.808573,252.145804
260.379422,192.891316,183.867930
-369.329323,120.399600,156.286549
861.477500,291.789515,201.495172
-198.839621,109.228735,272.140100
-796.139335,481.071140,263.489721
219.214624,250.433645,343.530300
-706.122344,64.323528,272.140100
48.473745,460.231558,272.140100
-729.119219,118.129319,272.140100
-480.373535,105.506529,272.140100
563.950392,120.399600,-39.888602
-809.048380,527.196100,321.548069
44.922231,229.712620,192.267928
-788.577249,485.105604,-356.469700
-81.955383,397.856192,-285.079600
-451.123251,527.196000,319.043202
-169.026864,-5.035428,-296.272848
-345.582210,120.399600,13.332761
-389.721025,120.399600,-77.112524
700.994673,35.901632,320.985994
82.200313,431.344261,-251.236950
517.143512,67.480962,-285.079600
-838.522500,452.649889,227.692509
-55.285015,91.131372,-356.429199
-259.671562,527.196000,321.250911
-610.294378,364.693144,163.893614
-648.619762,427.064203,183.705636
819.143955,91.167110,-263.898687
-397.043252,206.117064,186.381568
-838.522500,328.004844,-331.416224
-838.522500,168.519451,-63.235942
408.092939,139.585869,171.697629
-429.795922,72.694532,272.140100
-581.492372,59.638583,331.810866
98.201508,120.399600,-156.103218
565.643157,471.800636,247.466947
-461.673877,409.028665,-285.079600
759.734343,151.393138,-356.469700
-831.128694,229.426779,-356.386304
846.143640,527.196100,303.479031
248.085284,193.770542,184.067428
-152.028817,509.379031,272.159090
840.824003,578.981900,-102.491641
-352.758144,535.707285,-275.005723
-375.825201,465.451948,-356.469700
536.649452,316.434494,212.084916
-412.393366,120.399600,137.970024
290.295215,174.661515,272.140100
-838.522500,360.316905,-23.693825
819.261106,471.169412,-63.525853
-796.265194,466.314231,-234.435798
68.058476,118.489963,-285.079600
88.528560,516.658969,-285.144103
-280.843094,578.981900,-313.760681
-132.902621,105.975908,-285.079600
861.477500,168.465487,-34.137406
-134.658585,324.248876,213.850726
296.126208,299.797888,343.530300
-796.259994,172.110644,-245.752816
-531.424892,427.917610,343.530300
-796.306156,337.188919,-10.366485
-734.755824,538.618613,136.471331
-208.149249,314.765297,211.688969
-115.540525,578.981900,-344.630057
-764.227274,93.116967,272.116533
-26.386384,106.333803,-285.079600
819.133678,51.667745,253.544012
-363.949281,22.451218,272.140100
473.453144,438.921850,239.996541
-131.833640,26.050201,272.140100
861.440307,515.699129,88.495134
278.804003,122.823744,-180.406133
631.033931,236.309866,343.530300
458.391802,256.658945,343.530300
-296.813748,80.378906,341.261599
459.893751,120.399600,-71.067817
-790.164237,524.366521,288.117935
-47.538252,468.736119,-356.469700
87.440286,400.754582,343.530300
-236.782206,433.735677,272.140100
300.520238,149.298618,-186.862444
20.630300,419.370990,235.564135
37.423664,180.451562,-285.079600
-28.168719,256.632517,-211.353038
-483.482355,474.010787,-356.469700
-174.217298,524.270904,-350.103887
70.731590,439.454446,-285.079600
335.003198,241.310953,343.530300
-479.059277,122.453624,-356.469700
363.897498,120.399600,20.131185
-838.522500,45.011761,-70.725405
-837.694539,443.916422,-354.465344
711.110465,375.087084,-285.079600
379.610479,24.892473,-328.751657
749.188510,473.161273,343.530300
-640.320385,476.297723,343.530300
-471.417232,448.760254,-356.469700
-801.121540,340.194439,-356.469700
-596.939998,578.981900,-303.887285
843.580626,466.956004,343.514350
177.255778,435.762514,272.140100
861.477500,282.267275,-286.013672
-492.484081,578.981900,292.165985
-539.061312,357.585089,219.655837
241.509619,161.192778,-356.469700
-469.764116,52.641261,328.587089
680.988586,468.564592,244.210537
500.764128,120.399600,150.622219
819.256882,306.072480,139.896743
861.477500,91.960268,116.195407
819.261196,187.844185,47.055600
-575.053714,298.596210,-93.994140
16.773218,120.399600,9.059926
-520.822658,282.143492,-211.059777
503.722583,125.240139,-181.036094
-279.220828,72.069357,-350.423619
-686.121984,16.717313,-328.316682
569.289911,359.426801,-356.469700
-498.690593,17.049710,272.140100
334.842433,167.691776,-191.069539
501.634540,120.384842,-38.777775
699.336844,128.503802,-356.469700
-796.302434,132.833371,138.511248
-150.129022,-5.044081,285.026159
507.792031,160.846424,176.584035
665.771712,329.818134,-192.779947
5.276433,120.399600,-60.148371
355.946856,162.396501,176.927260
520.597146,258.021020,272.140100
861.477500,216.419015,155.114721
810.985076,25.256161,343.510245
832.107072,-5.054700,294.664359
-430.574484,426.830425,343.530300
857.421551,-4.899417,158.394042
348.288323,502.573790,-267.482023
-796.306171,208.595053,90.486824
-573.452477,527.196000,320.736601
-268.755341,216.372000,-285.079600
672.835292,300.865689,-285.079600
861.477500,571.560884,131.246309
-796.306168,203.159332,-102.941056
462.204080,374.075448,343.530300
580.628395,424.081272,236.579899
-132.505092,320.361197,343.530300
214.730318,420.957963,-285.079600
-500.781256,343.839234,343.530300
-691.908111,5.802868,272.172591
254.789748,120.399600,-24.278966
-168.442532,120.399600,107.066967
480.253153,366.955482,-285.079600
-554.584069,259.735336,-356.469700
-796.273337,374.423029,203.291629
-108.029902,358.498913,272.140100
568.794912,363.329355,343.530300
167.785846,120.399600,41.341853
-420.699474,120.399600,83.087853
387.893580,319.123461,212.684114
-101.003481,167.626639,343.530300
36.728516,120.399600,-23.598714
-204.666230,64.323140,-346.874290
819.261061,410.835877,-29.606075
-143.423642,120.399600,-162.940314
842.885892,524.352564,-247.310817
819.218360,403.684866,-238.571909
46.585860,171.132760,-191.834535
-6.973324,578.948234,336.549102
-424.129360,55.567854,-285.079600
-772.281832,524.334559,332.632436
-838.522500,325.845225,-279.088317
636.315197,212.426096,82.425091
-816.472521,578.981900,108.681592
-514.796112,529.157859,-273.225838
-159.077411,-5.038774,290.539938
-796.306100,61.912165,-126.193163
168.427748,147.788086,-285.079600
190.227708,58.374674,272.140100
599.360706,320.304598,-225.353354
686.348858,342.851673,106.138659
558.167054,41.131919,-336.251380
128.390112,71.858989,272.140100
427.336916,524.138376,-288.724354
-478.850159,243.373806,343.530300
-521.935708,217.606806,272.140100
-838.522500,399.089569,57.810304
413.761607,263.146585,-356.469700
819.261104,157.569455,7.326416
819.261130,448.409735,-95.393473
194.050142,277.684124,272.140100
225.157628,578.981900,-343.022570
-117.705622,284.038105,343.530300
-260.267492,403.360855,-285.079600
861.477500,350.818208,288.016582
861.477500,568.386467,-230.882091
92.752444,120.399600,-77.354423
741.175526,492.514708,150.642201
414.968106,120.399600,44.056528
-549.370438,488.035926,-263.523941
349.405142,191.230049,-356.469700
-33.997027,493.786647,272.140100
612.229294,475.199480,248.183177
-644.828349,435.363807,-356.469700
365.992447,347.052699,-285.079600
768.465575,319.148937,-356.469700
101.207745,80.291726,341.221967
861.477500,338.803734,103.071966
-109.683385,1.881226,-318.072565
512.781469,131.927374,4.792655
384.611008,195.174721,-197.354697
524.736105,116.072423,9.705923
249.790510,472.287194,247.640250
861.477500,451.418035,303.165116
-348.955845,333.434240,-356.469700
34.214050,274.398667,272.140100
819.222845,161.699639,215.363747
428.122335,277.238154,-356.469700
861.477500,570.403327,-328.148459
861.477500,107.544594,136.383062
-747.165224,404.472915,272.140100
-499.254058,388.335393,343.530300
-128.941948,376.165610,-356.469700
432.032366,120.399600,-13.817058
360.894198,542.598887,-276.612809
-619.128323,417.750320,223.706705
437.621443,120.399600,17.751719
861.477500,159.633487,-203.554456
336.753251,411.278693,-356.469700
-838.522500,420.192056,277.236130
158.669469,152.258554,174.586873
-82.930294,175.815093,272.140100
-796.292019,464.267854,-174.810089
503.196254,524.327341,-347.788700
506.638633,-4.979296,296.335914
596.551702,406.797146,-356.469700
-802.362670,46.834048,343.530300
-244.427953,578.981900,-331.095408
-669.155027,436.706321,-50.446881
510.700131,119.760909,-356.469700
-137.129565,410.845622,233.615961
-488.639763,314.915744,-223.599716
98.905032,120.399600,-149.020934
235.460184,393.347053,-285.079600
861.477500,377.664679,229.885825
545.385254,476.041230,-356.469700
-734.967274,524.366500,-329.306540
-704.681207,513.133918,272.171365
-702.804279,486.301144,-43.405760
-176.420194,524.351815,-340.491918
819.261178,240.583816,-112.073087
707.889114,225.496109,272.140100
-553.141610,301.489161,187.973214
-836.016148,527.487301,-15.620338
521.609751,578.981900,334.058040
575.890254,-3.498211,273.316425
331.125739,263.771193,272.140100
-230.197860,-4.968789,-309.329254
-464.528790,120.788637,272.140100
-826.050893,524.338559,-157.570052
-239.202018,89.476417,272.140100
-637.722866,524.366530,296.975292
307.988293,357.158592,221.361225
448.659439,15.354601,-324.364544
-688.934720,183.166275,-285.079600
556.329830,578.981900,309.295957
-236.945685,407.266094,-245.728018
528.702176,338.164030,-229.971226
730.535510,495.908710,-285.079600
-565.591419,260.742974,343.530300
407.172029,85.150672,-355.876645
82.057267,516.480190,257.732805
-431.952409,185.246012,180.254873
-796.306128,133.198911,-34.637199
861.477500,306.770869,-182.737098
-324.975633,449.515228,-255.351649
-315.565076,241.476161,-207.890102
819.185704,239.531829,240.476405
-373.659026,578.981900,-336.690920
-355.342735,357.086048,-234.239050
624.354063,224.797288,163.418314
-154.603259,152.899288,-285.079600
817.087364,539.413151,-356.469700
569.300765,213.620518,-200.548148
-692.188590,523.754487,274.584740
129.248978,142.217742,-285.079600
1.923988,371.286762,-285.079600
342.435589,297.289788,207.701561
-796.306100,21.355045,-58.981624
724.444079,226.687677,-356.469700
751.825431,560.943783,-232.772079
-373.860739,466.052108,-285.079600
338.857658,227.626889,-356.469700
825.539463,578.981900,-47.901105
-838.522500,541.595033,-135.140197
-838.522500,220.833150,-249.028392
-120.418245,242.709462,-356.469700
-788.664713,290.773131,-284.936625
-560.568829,276.494185,26.899916
861.477500,355.214917,127.380144
752.100687,578.794670,255.840953
535.978041,330.786164,-285.079600
819.261200,167.396000,117.342383
-796.306182,491.198690,19.152056
-796.306132,381.756084,-3.956841
-737.252605,368.871331,-285.079600
-410.255465,120.399600,-82.064072
447.342221,298.413829,207.969238
861.477500,544.684199,194.443373
766.076166,544.839273,73.381811
-419.435125,320.335430,-356.469700
-48.141291,101.291534,272.140100
597.547091,220.222462,-356.469700
815.610610,-4.927723,338.177286
595.719492,26.713315,272.140100
152.636197,189.613498,343.530300
-662.749509,454.575068,-285.079600
-661.777264,30.156828,-331.264887
-838.522500,353.249989,-49.669611
538.223667,273.207073,-215.151386
31.300842,17.334203,272.140100
664.691691,578.981900,306.055728
353.031068,237.906688,-285.079600
-646.884373,219.992760,-285.079600
196.667477,120.399600,9.672469
-78.126375,71.516216,272.140100
759.886071,537.436010,-156.578324
-490.088469,390.640611,343.530300
-745.634507,413.926956,343.530300
343.222802,524.366500,296.299180
-115.421729,120.399600,-169.181264
-568.535129,543.443249,343.530300
690.652964,405.835869,201.340953
-303.707675,321.538091,213.236516
533.481885,534.598057,343.530300
-386.365124,31.252554,318.746504
612.481145,267.477991,272.140100
254.467021,142.651749,172.379030
-796.306124,46.713395,87.333797
861.477500,133.860944,99.215566
718.612239,49.399958,330.941582
57.245145,466.496827,246.322270
685.010211,459.517360,272.140100
-838.522500,108.905034,116.996268
-838.522500,367.847567,-77.065142
-724.348435,216.919456,272.140100
819.261115,100.792366,59.633435
-838.522500,433.690979,-321.538588
-21.209089,511.615326,272.166401
-626.360421,527.266644,258.715839
-593.839382,210.344988,272.140100
-838.522500,242.019539,293.765597
-310.151819,218.303320,272.140100
647.771329,497.822879,253.159044
-731.532569,224.930981,272.140100
-144.974241,444.963856,-356.469700
226.900965,58.132327,-285.079600
-551.186211,263.221703,-91.588629
-454.782264,108.725616,272.140100
-796.306100,29.639698,2.076865
-691.158551,502.983201,-231.662037
523.152602,524.366557,-313.931794
714.778104,370.049824,343.530300
-517.317592,253.765801,-356.469700
-436.392634,435.762391,-285.079600
-796.306100,70.689160,95.866083
-332.060598,524.216622,-289.344276
-435.708466,353.371152,-285.079600
-796.305647,149.030771,-144.334408
-494.772547,349.999395,343.530300
-767.620856,139.525451,343.530300
-648.641980,-4.971241,296.927176
-796.306176,391.198587,63.102392
198.430711,45.609886,-338.285864
-781.291755,132.964294,-356.469700
-471.332769,263.158207,-356.469700
-355.165083,459.700029,-356.469700
728.195944,435.426735,-4.915318
-584.862636,44.437195,272.140100
802.662884,-5.054700,-326.607692
291.824726,25.896276,272.140100
-822.181267,-5.039451,-50.810605
-838.522500,290.962192,-62.388657
-559.921618,-4.944561,-290.485560
-390.783509,523.456988,-354.595330
-746.019464,504.761404,-356.469700
-834.129419,527.256812,273.278669
675.798693,506.695385,343.528783
-604.428892,565.805131,-356.469700
-100.057131,73.052609,-350.870600
-79.270549,120.399600,-170.688157
-133.182270,502.755371,272.140100
-394.021438,434.296255,272.140100
699.351548,373.530546,50.418243
-586.998572,327.573571,153.739049
-796.306192,273.022815,-6.876608
625.181811,461.288376,272.140100
-17.573173,149.164803,-356.469700
-331.668494,19.358435,313.259430
861.477500,124.402303,-139.551724
-796.306118,116.604189,-96.820278
577.174074,578.902033,338.275203
-816.238905,527.196027,164.091149
60.643875,575.116385,-286.874329
-653.875106,241.735659,343.530300
-786.615809,231.723819,-284.960889
-759.621036,111.590037,-285.062402
-796.416915,-1.366130,-261.329848
-838.522500,202.228619,118.670229
-143.330785,146.051421,272.140100
-838.497038,433.706541,329.250499
-156.325864,156.227482,-356.469700
161.905157,429.510930,-356.469700
851.631353,527.196000,20.927438
-206.424443,578.981900,290.178477
-741.723699,366.938911,-356.469700
-90.223953,158.668443,176.057970
491.687166,514.194390,257.154545
-32.853530,479.523667,272.140100
825.251509,-5.005569,-285.956523
304.989038,259.710935,-212.062618
-769.680585,175.498499,343.530300
689.419300,463.293285,-285.079600
210.043281,566.652665,-282.124032
-838.522500,165.239244,133.451640
347.283842,145.858244,343.530300
-796.306100,75.722629,-136.492430
-30.753721,162.328191,-356.469700
861.477500,173.185172,-140.857500
861.447835,18.446838,301.703919
-796.285965,270.075127,175.246556
-656.891412,418.532536,-14.643769
233.679149,380.370754,-239.599915
819.241062,75.076753,174.935379
723.512424,495.043922,343.530300
-86.912453,120.399600,-93.705599
-201.778180,49.683347,327.215943
-450.425833,98.323612,272.140100
-60.107322,139.738695,-356.469700
-764.028450,397.546560,-285.056259
-207.250912,24.331468,-328.490609
-494.241615,270.396747,-285.079600
861.477500,184.838751,231.866063
686.749412,341.610182,-28.561174
-488.249480,207.951878,-183.791594
-238.756600,453.298236,243.295178
-256.297534,119.856999,-285.079600
-523.085353,447.502149,-356.469700
-598.774056,536.895590,343.530300
861.477500,361.647262,-172.355614
-729.563435,526.289999,71.980900
819.234002,33.728675,190.579615
861.477500,549.169629,-108.936248
-509.578408,202.376052,-111.291649
417.279116,494.590338,252.705560
606.180695,309.121509,343.530300
861.477500,142.373542,-284.301106
564.638330,578.981900,318.701177
-13.153334,168.595698,343.530300
758.601729,578.981900,300.487223
-724.006207,519.051409,97.693294
580.856310,193.655840,272.140100
861.477500,189.137909,-286.039441
-187.101710,527.196000,324.415176
-838.522500,311.474266,-274.636711
-558.123095,494.968128,-356.469700
520.153354,108.499891,-20.386442
-838.522500,341.817057,49.123826
355.670202,451.554616,242.897993
-838.522500,472.317394,175.227710
819.238518,21.267850,180.573634
-766.177062,143.550909,272.113821
-838.522500,547.000080,-189.297241
682.506823,72.811099,-350.844652
404.492383,250.076940,196.941372
689.707106,322.922828,272.140100
242.156037,166.269308,272.140100
170.822335,444.542183,343.530300
699.636042,374.448181,68.938765
-237.584438,74.128348,-351.359626
-607.871653,351.421435,129.495464
-38.037876,524.357443,-338.806796
-796.306121,122.081096,68.198247
93.715462,481.837478,-285.079600
-558.166948,524.338392,333.861711
-50.381161,420.384424,-285.079600
91.278249,462.544735,272.140100
-633.398409,485.009835,-260.721998
239.544773,377.536985,226.013147
-57.578127,120.399600,-155.353906
-796.198392,295.963996,248.620086
819.261173,476.782900,28.225564
-816.701282,578.981900,-344.081855
-56.917890,393.539619,343.530300
662.999422,281.454522,-99.815791
-596.767379,333.680560,119.984600
623.724247,17.722987,-285.079600
448.086582,129.154085,-285.079600
-414.632569,527.228764,-351.499736
335.003891,120.399600,8.027024
-47.004533,58.353547,-344.134552
247.904968,362.630482,222.610652
-838.522500,301.848054,-128.689925
-213.278160,524.066463,-353.156609
575.080185,578.981900,306.002843
-763.321904,485.938583,343.530300
811.510176,578.981900,16.898467
736.257613,460.549612,343.530300
-106.667912,334.988358,343.530300
861.477500,304.860044,-293.510755
812.228830,375.965546,-284.929411
-838.522500,535.352570,258.557414
860.915457,577.096186,15.528929
250.433201,372.306788,224.819291
291.084629,28.690328,317.559855
-796.306105,434.394517,-13.637893
745.401516,394.821035,-285.079600
495.479690,147.491191,272.140100
-20.396575,72.493627,-285.079600
507.385963,502.678013,254.522982
-475.100370,578.981900,295.683329
-838.488851,445.087986,332.137712
-178.454129,445.754895,-254.520748
-838.522500,96.292688,-81.244809
-333.133366,95.382144,272.140100
861.477500,48.950288,-297.174118
427.915501,104.116719,343.530300
861.452885,512.461824,-276.717827
824.064773,-4.917714,41.368394
-796.186334,411.319533,-264.607320
317.889158,158.281150,175.977726
-324.635804,190.697213,-356.469700
-637.974798,495.927731,-356.469700
-357.448988,365.800511,343.530300
-838.522500,450.673019,-311.947695
-659.021348,117.954143,-285.079600
-142.559183,492.537099,343.530300
233.770213,329.998739,-356.469700
-158.429673,382.087715,227.050811
719.411449,105.709852,343.530300
-349.144736,172.661247,-191.987624
-19.671432,365.577978,-285.079600
-292.785505,411.393143,272.140100
602.093940,223.691768,343.530300
581.963508,357.700330,-234.337725
97.318689,527.196004,331.813002
-427.892623,481.411479,-356.469700
-604.352449,22.234774,314.623062
749.146237,462.511911,272.140100
-371.278104,493.789688,-356.469700
772.467789,524.225213,-289.638801
459.366594,120.399600,-130.853181
-838.522500,448.275916,151.180532
309.826958,158.173001,343.530300
154.448444,120.399600,153.281680
-838.522500,107.869965,114.581036
291.937887,473.734621,-260.906817
822.004769,523.893466,-157.537038
861.477500,101.885935,138.758630
-838.522500,144.884750,-134.948669
645.068203,0.805093,-285.190015
-622.856223,369.757246,93.371508
-838.489972,16.056308,-252.522517
68.406264,197.450355,343.530300
613.993421,162.235280,-285.079600
-638.184655,82.880424,-285.079600
630.515431,25.214326,272.140100
248.408938,395.242241,-356.469700
-666.731772,452.506280,-285.079600
453.475658,360.338540,-285.079600
36.950538,524.350348,-340.931087
143.683577,278.740091,203.460338
-102.872692,172.600082,-285.079600
-742.244879,68.448755,272.140100
861.477500,160.484257,-117.139919
819.251157,301.583279,152.612059
606.839553,188.315653,-285.079600
344.669943,448.138434,-285.079600
819.245874,47.843413,164.272359
819.249056,321.981019,-170.275849
-337.220811,120.399600,-80.769740
-257.101457,418.493274,343.530300
208.143381,326.140392,343.530300
231.794177,527.196017,333.946770
832.091862,524.339954,115.589085
185.700552,266.674830,200.706508
-597.138436,357.137731,187.094979
-796.306105,34.559609,38.314495
177.173031,454.341189,-356.469700
100.809063,238.506857,-207.215022
-220.527400,493.550560,343.530300
743.258617,319.563210,272.140100
653.595021,521.476599,272.549711
-539.291836,435.439538,-251.346304
518.461720,386.308329,-285.079600
-442.929181,299.157047,272.140100
-121.861634,527.290129,339.937749
861.477500,560.067166,-117.032887
-766.199964,515.092528,343.501396
-728.825730,578.981900,315.795337
-255.540284,159.396928,-189.194100
861.477500,335.534587,27.334474
707.709749,395.089373,69.718860
-626.770359,52.882773,-285.079600
71.400489,74.873235,272.140100
-702.917682,319.813596,272.140100
-252.161109,459.362743,-257.616110
-331.610970,236.531872,-206.745541
-838.507353,282.445983,325.612969
-796.272208,303.733562,-218.738738
-255.846120,369.276091,272.140100
-603.810153,573.566838,-356.412717
-130.880125,524.366549,-322.413803
-638.372743,174.336566,343.530300
4.687234,512.395577,-356.445842
861.477500,569.484622,101.728547
812.388972,98.914899,271.988113
-694.649321,505.501732,-226.999408
203.045117,131.145399,-182.615724
1.932106,133.069514,-285.079600
846.360163,501.156353,-356.446025
-753.598575,363.187209,272.131315
173.020319,89.559198,272.140100
-415.767857,100.848103,-356.465391
178.009597,575.994369,275.036925
-16.649567,16.500565,-324.881911
133.923848,214.759310,188.854436
-833.689546,527.237380,54.336682
88.487353,578.981900,-345.839973
-838.522500,158.491490,-242.036662
453.415952,319.425261,212.757853
819.225164,406.688048,210.475209
259.003124,77.639135,272.140100
706.830605,502.994846,-260.453839
-71.378780,244.181784,-285.079600
-454.176038,532.559947,261.242681
-511.751306,206.211339,104.117627
-838.522500,95.455492,-25.927570
-12.172192,466.394735,-285.079600
819.233139,54.737184,-205.345624
861.477500,538.861135,300.117831
-718.077289,400.721921,-356.469700
-745.158157,550.600408,-356.469700
529.927075,228.813793,-356.469700
248.248347,120.399600,80.763791
319.539649,36.693525,272.140100
517.567693,493.377276,252.399551
521.123878,237.218848,-285.079600
-838.503900,27.415964,-1.541492
-838.522500,125.059587,154.385296
-226.879926,577.630086,-355.587360
29.427004,120.405990,-175.312476
-124.112395,120.399600,-91.690533
-103.193638,364.753752,-236.034759
602.907840,245.994020,191.536093
-821.203846,384.978429,-356.452143
-837.191327,-3.691358,321.869765
-281.747268,120.399600,-90.967793
-626.702109,172.189295,272.140100
235.486753,-4.968220,296.407432
328.468718,260.104781,-212.154270
367.184812,578.981900,-342.615968
201.689706,92.242853,272.140100
-613.351921,347.561473,272.140100
861.477500,416.731689,-63.710931
-838.522500,110.246613,96.484024
736.432900,468.166734,-60.959622
-16.335319,259.483324,-356.469700
-838.522500,221.239973,180.322496
-221.106627,524.366500,-329.947758
-346.239502,436.802069,-252.445313
633.303240,273.855037,272.140100
-140.550282,578.981900,-315.932594
-824.831206,527.196000,-157.908895
-31.447163,120.399600,-91.476665
-649.075570,578.981900,326.221698
-242.857567,339.015284,272.140100
-69.696521,198.046325,343.530300
9.699641,120.399600,72.368320
-422.567598,224.371510,-356.469700
-838.522500,343.155386,314.270450
296.884246,432.840873,-251.573157
819.123643,202.607719,256.085695
-722.121287,103.225651,-285.079600
-801.322974,524.234707,-64.728068
861.477500,284.117065,186.160631
-33.512944,485.482666,-356.469700
-653.830263,414.017244,-19.509880
159.541400,-3.052156,302.266136
-20.971419,430.355240,-251.011171
-838.522500,93.833987,152.944541
756.909980,44.486103,272.140100
770.130790,410.062742,-285.079600
531.439696,353.059107,-285.079600
96.935243,101.038584,-356.466102
382.543686,432.255386,238.492066
-444.121474,538.849321,-275.638822
-182.122987,418.758445,343.530300
664.308375,284.060986,61.814454
688.439063,374.294130,171.512126
-151.995767,409.697077,233.352911
819.195399,176.793156,-250.967574
-353.852384,-4.676031,-288.071719
-796.306200,452.465390,-125.705982
-278.705452,377.588893,272.140100
-56.016587,433.768510,-251.790263
-377.158310,178.629816,343.530300
23.979792,492.001985,343.530300
56.923230,216.127713,-356.469700
559.487687,-5.045200,-299.296978
-363.603284,-5.043894,-302.597369
459.973785,578.981900,321.315819
-366.588110,405.521768,343.530300
-443.903309,220.574995,343.530300
86.125922,342.645383,-230.988275
762.189082,536.102299,-107.674022
-110.651364,142.993371,-185.405035
-707.375210,472.436872,-356.469700
140.019263,524.333480,333.054937
-551.584252,192.773034,272.140100
-838.449773,574.025865,-85.367939
819.261200,284.709086,-115.379659
17.425432,252.915690,272.140100
497.335063,578.981900,-307.775924
-491.189011,142.251173,272.140100
861.477500,286.256056,239.656411
116.646090,554.745865,343.530300
861.477500,181.479770,-107.923665
671.574100,532.338822,-356.416841
336.650810,402.510736,-285.079600
819.261200,192.064252,107.001181
-838.522500,164.623430,60.037794
389.719937,153.555988,-285.079600
-796.143753,103.647093,262.336523
861.477500,496.120357,24.132386
79.445132,151.758496,174.472179
-793.199518,5.214050,-284.632661
718.669351,475.392383,208.879621
643.421749,424.444243,-356.469700
-514.782500,515.902230,343.492927
-205.259877,578.979021,281.520564
388.075667,524.354756,326.586374
446.274450,401.456966,-285.079600
-303.096282,514.054329,272.174374
-218.555609,120.630474,-177.417954
-522.276203,250.957505,174.158375
-618.868424,449.991696,-285.079600
332.669525,548.257574,-356.469700
-337.421942,520.535851,258.611210
-838.522500,219.754804,170.620005
9.835284,199.450844,-285.079600
-790.502447,-5.054700,-320.612271
-314.223326,13.269372,-285.087682
625.017316,402.356195,231.214966
272.937166,511.733280,-269.581630
-544.804826,428.990493,236.839670
861.477500,272.717163,-318.898954
